# .PCD v0.7 - Point Cloud Data file format
VERSION 0.7
FIELDS x y z rgb
SIZE 4 4 4 4
TYPE F F F U
COUNT 1 1 1 1
WIDTH 151
HEIGHT 1
VIEWPOINT 0 0 0 1 0 0 0
POINTS 151
DATA ascii
0.99410188 0.99338043 0.075028442 4284900966
1.0231621 0.97441047 0.074603222 4284835173
1.070318 0.95653403 0.074439883 4285164138
1.1269709 0.95516163 0.075146012 4287401100
0.97305965 1.0226623 0.075017132 4284900710
0.95275497 1.0741974 0.074845053 4284900966
0.94889414 1.114498 0.074036792 4284573281
0.95252889 1.1250186 0.07466545 4284900966
0.99150813 1.2074362 0.075668603 4284900966
1.022786 1.2291281 0.073155351 4284703587
1.0746325 1.246604 0.075040095 4284900966
1.124192 1.2472304 0.074747026 4285032552
1.173014 1.2304115 0.074879639 4286808963
1.0970132 1.2508973 0.076932788 4284900966
1.1125846 1.2504103 0.074860133 4284900966
1.0931374 0.94850934 0.12164181 4285887861
1.1131791 0.94913638 0.12114878 4286743170
0.99402976 0.99323457 0.12435462 4284900966
1.0231003 0.97432584 0.12515463 4284900966
1.0702257 0.95663083 0.12452362 4285164138
1.1268423 0.95511627 0.12477248 4287401100
1.1753582 0.97328657 0.12381627 4289309097
1.2061492 0.9949913 0.1206293 4290427578
0.97349107 1.0224661 0.12530006 4284900710
0.94894385 1.0846566 0.12460235 4284835173
0.95270127 1.0740807 0.12530021 4284900710
1.2464975 1.0766954 0.12186415 4291414473
0.94892329 1.1146754 0.12468743 4284573281
0.95270348 1.1265253 0.12563492 4284769892
1.2456307 1.124947 0.12152144 4290953922
0.96841854 1.1737909 0.12451103 4284835173
0.99172848 1.2082103 0.12415735 4284900966
1.02288 1.229002 0.12328573 4284703587
1.0743549 1.2465912 0.12477183 4284900966
1.1243885 1.2472873 0.12466959 4285032552
1.1745443 1.2291307 0.12490018 4286940549
1.0977165 1.2508795 0.12639593 4284900966
1.1123159 1.2505227 0.1232776 4284900966
1.0931755 0.94852245 0.17139812 4285887861
1.1131624 0.94914454 0.17112753 4286743170
0.99367964 0.993536 0.17580821 4284900966
1.0230788 0.97427166 0.17544268 4284900966
1.0699711 0.95671278 0.17514376 4285164138
1.1262909 0.95484841 0.1744872 4287335307
0.97358769 1.0220129 0.17512617 4284900966
1.2259423 1.0242397 0.17224526 4290954178
0.94887078 1.0846422 0.17537542 4284835173
0.9526549 1.0739006 0.1754425 4284900710
1.2466208 1.0775013 0.17164101 4291414473
0.94892734 1.1147715 0.17504206 4284573025
0.95257688 1.1261638 0.1750322 4284769892
1.2454489 1.1257395 0.17169182 4290953922
0.96871263 1.174101 0.17455953 4284900966
1.2264647 1.1776586 0.17287791 4289638062
0.99172163 1.2075312 0.1736652 4284900966
1.0225924 1.2287742 0.17439547 4284703587
1.0743175 1.2466636 0.17492738 4284900966
1.1246064 1.247283 0.17484114 4285032552
1.1758261 1.2281621 0.17414261 4287006086
1.2063751 1.2066026 0.17485213 4288453788
1.097941 1.2507217 0.17614689 4284900966
1.0936124 0.94840223 0.22367211 4285953654
1.1125858 0.94908172 0.22275168 4286743170
0.99343723 0.99353498 0.22550541 4284900966
1.0230286 0.97438931 0.22562014 4284900966
1.0699544 0.9566462 0.22561134 4285164138
1.1273826 0.95509398 0.22390062 4287401100
0.97365975 1.021683 0.22428378 4284900966
1.2244501 1.0217319 0.22309715 4290954178
0.94880933 1.0848643 0.22468854 4284835173
0.95257831 1.0740575 0.22541021 4284900710
1.2465885 1.0770327 0.22187319 4291414473
0.94886583 1.1148564 0.22510053 4284835173
0.95260358 1.1269386 0.22489755 4284704355
1.2457035 1.1242729 0.22175865 4290953922
0.96870607 1.1738735 0.22524798 4284900966
0.99201685 1.2069558 0.22487278 4284900966
1.0217009 1.2278886 0.22350036 4284769380
1.0740736 1.2466792 0.22475208 4284900966
1.1244644 1.2473167 0.22462438 4285032552
1.1752005 1.2286752 0.22475205 4286940549
1.2061944 1.2068311 0.22216314 4288453788
1.0982292 1.250664 0.22548099 4284900966
1.106714 1.2506542 0.22587736 4284900966
1.09342 0.94850796 0.27131349 4285887861
1.1132689 0.94908315 0.27130878 4286743170
0.99305356 0.99362099 0.27589157 4284900966
1.0227727 0.97440302 0.2758452 4284900966
1.0700008 0.95676649 0.27527803 4285164138
1.1279404 0.95520782 0.27466419 4287269514
1.1747345 0.97284526 0.27352071 4289309097
1.205107 0.99357212 0.27012935 4290361785
0.97382402 1.0215347 0.27506283 4284900966
0.94869608 1.084879 0.27454087 4284769893
0.95256484 1.0740523 0.27512372 4284900710
1.2466434 1.0770237 0.27163196 4291414473
0.94885534 1.1150535 0.27580783 4284835173
0.95309854 1.1281155 0.27510154 4284704355
1.2456914 1.1247584 0.27164021 4290953922
0.96864694 1.1740727 0.2750254 4284900966
0.99210626 1.2073539 0.27227372 4284900966
1.0194852 1.2266349 0.26982749 4284769380
1.0733011 1.2464797 0.26399481 4284900966
1.124465 1.2476389 0.2674067 4284966759
1.1761659 1.2277683 0.26954061 4286679169
1.2049167 1.2082901 0.26668105 4288387995
1.0974681 1.2511537 0.27261114 4284900966
1.1094124 1.251284 0.27814564 4284900966
1.0936469 0.94845563 0.32265404 4285887861
1.1126802 0.94902772 0.31953058 4286743170
0.99285805 0.99364698 0.32582229 4284900966
1.0227473 0.97438967 0.3252283 4284900966
1.0701532 0.9567768 0.32481101 4285164138
1.1264188 0.95478618 0.32375824 4287335307
1.1755112 0.97355181 0.32276464 4289309097
1.2043018 0.9936794 0.31957087 4290361785
0.9738459 1.0212415 0.3251321 4284900966
0.94864357 1.0850022 0.3246288 4284769893
0.95250344 1.0740541 0.3249478 4284900710
0.94879788 1.1151086 0.32455221 4284835429
0.95203376 1.1269494 0.32507911 4284704099
0.96751499 1.1737447 0.32458305 4284900966
0.99195898 1.2093656 0.32417244 4284900966
1.0179055 1.2288339 0.32533714 4284703587
1.0974565 1.2518296 0.32299006 4284900966
1.1098139 1.2512465 0.33242446 4284900966
0.9921335 0.99400002 0.37427014 4284900966
1.0226295 0.97455573 0.37519413 4284900966
1.0706079 0.95691681 0.37472057 4285164138
1.1242681 0.95492357 0.37479973 4287269514
1.1767397 0.97591281 0.3754878 4289440683
0.97360379 1.0213085 0.3751502 4284900966
0.94857115 1.0852113 0.37398112 4284835429
0.95226455 1.0735753 0.3748613 4284835173
0.9487043 1.1149632 0.37572548 4284835429
0.95220774 1.1316584 0.37530664 4284704099
0.99187106 1.209214 0.37338468 4284900966
1.0142046 1.226518 0.37293187 4284835173
0.99171072 0.99414647 0.42613825 4284900966
1.0225097 0.97470039 0.42546001 4284900966
1.0708132 0.95677173 0.42417416 4285164138
1.1243182 0.95490992 0.4253329 4287335307
0.97353142 1.0213351 0.42483902 4284900966
0.94862717 1.08524 0.42469543 4284769636
0.95256537 1.0713553 0.42433217 4284835174
0.948587 1.1148268 0.42559063 4284835429
0.95228827 1.1318554 0.42436916 4284638562
1.012714 1.2255735 0.42573404 4284900966
0.97294313 1.0221999 0.47544861 4284835173
0.95280647 1.0687083 0.47431928 4284835173
0.95176727 1.1327102 0.47531992 4284507488
