# .PCD v0.7 - Point Cloud Data file format
VERSION 0.7
FIELDS x y z rgb
SIZE 4 4 4 4
TYPE F F F U
COUNT 1 1 1 1
WIDTH 163
HEIGHT 1
VIEWPOINT 0 0 0 1 0 0 0
POINTS 163
DATA ascii
0.1054063 -1.2073456 0.07153704 4289837745
0.13040091 -1.1754315 0.072735392 4290954691
-0.14363959 -1.1251801 0.074121095 4284900966
0.14744514 -1.1237342 0.072465241 4291414473
0.14598624 -1.0706239 0.072929353 4290888129
0.1515765 -1.0822644 0.074420333 4291085508
-0.028754441 -0.95489126 0.075030237 4284900966
0.02516754 -0.95343637 0.075460985 4285032552
0.074654378 -0.97075415 0.075452015 4286874756
0.10633536 -0.99350452 0.075006932 4288388251
-0.014353381 -0.94886929 0.074750148 4284900966
-0.0063903211 -1.2504451 0.12986067 4285953654
0.0082086585 -1.2501466 0.12703982 4286545791
-0.10053768 -1.2040517 0.12338163 4284900966
-0.085613325 -1.2162349 0.12200437 4284900966
-0.029292224 -1.2472769 0.12438142 4285098345
0.034191396 -1.2460071 0.12172618 4287598479
0.072744057 -1.2300676 0.12120046 4289111718
0.10594363 -1.2077512 0.12340049 4289182888
-0.12230043 -1.1767341 0.1253792 4284900965
0.13017276 -1.175397 0.12394673 4291020227
-0.14377171 -1.125127 0.12498489 4284900966
0.14746259 -1.124114 0.1228774 4291414473
0.15149559 -1.1146576 0.12669478 4291414473
0.14605436 -1.0706462 0.1248286 4290888129
0.15148869 -1.0827943 0.12598148 4291085508
-0.12534109 -1.0233837 0.1250959 4284900966
0.12983193 -1.0245814 0.12570381 4289703855
-0.10673457 -0.99452835 0.12446477 4284704867
-0.076170102 -0.97250009 0.12524296 4284835430
-0.028780291 -0.95484245 0.12552696 4284900966
0.025130417 -0.95335495 0.12554398 4285032552
0.074861862 -0.9708277 0.12634143 4286875012
0.10644445 -0.99344879 0.12560561 4288322714
-0.013668926 -0.94887078 0.12536658 4284900966
0.014823961 -0.94836044 0.12560238 4284900966
-0.0062406124 -1.2504724 0.17485788 4285953654
0.0074386895 -1.2502071 0.17259099 4286479998
-0.085453197 -1.2163752 0.17219095 4284900966
-0.028954357 -1.247371 0.17276606 4285098345
0.031905752 -1.2464799 0.17083451 4287532686
0.073035829 -1.230003 0.17127754 4289177511
0.10586509 -1.207231 0.17250951 4289575853
0.12968673 -1.1764177 0.17390063 4291019971
-0.14366817 -1.1277636 0.17521571 4284835430
0.14742877 -1.1244636 0.17266205 4291414473
0.15157105 -1.1145765 0.1749396 4291414473
-0.14435594 -1.0720972 0.17382236 4284900966
0.14673309 -1.0728558 0.17453054 4290888129
0.15156931 -1.0818952 0.17445026 4291085508
0.12998983 -1.0245234 0.17461632 4289703855
-0.107232 -0.99487436 0.17296924 4284704611
-0.076099031 -0.97261387 0.17446342 4284835174
-0.028827412 -0.9548527 0.17464963 4284900966
0.025300696 -0.95335197 0.17478658 4285032552
0.074818328 -0.97079694 0.17488833 4286874756
0.10669371 -0.99361902 0.1749865 4288322714
-0.013646743 -0.94884181 0.17453219 4284900966
0.014691051 -0.94833046 0.17510684 4284900966
-0.0060561597 -1.2505041 0.22077613 4285953654
0.0083143404 -1.2501682 0.21780246 4286545791
-0.10021987 -1.2043316 0.22276525 4284900966
-0.085293077 -1.2165153 0.22236519 4284900966
-0.027543284 -1.2476691 0.22426179 4285164138
0.030890359 -1.2467552 0.22208148 4287466893
0.07362511 -1.2297679 0.22157136 4289177511
0.10581212 -1.2068954 0.22166942 4289903282
-0.12314426 -1.1755114 0.22287299 4284900710
0.13002722 -1.1759382 0.22238259 4291019971
-0.14387776 -1.1253175 0.22360632 4284900966
0.14738138 -1.1248341 0.2225427 4291414473
0.15156956 -1.1145171 0.2258205 4291414473
-0.14439219 -1.0719143 0.22431464 4284900966
0.14732887 -1.0754061 0.2237751 4290953922
0.15152402 -1.082647 0.22585762 4291085508
0.1300182 -1.024747 0.22539854 4289703855
-0.10694763 -0.99449641 0.22277239 4284704611
-0.075807303 -0.97248214 0.22526808 4284835173
-0.028688271 -0.95485002 0.22567262 4284900966
0.024939314 -0.95325547 0.22572735 4285032552
0.074855343 -0.97082394 0.22614944 4286874756
0.10668322 -0.99355662 0.22641625 4288322714
-0.016150832 -0.94894242 0.2263211 4284900966
0.015025526 -0.94833934 0.22518387 4284900966
-0.0058753788 -1.2505361 0.27065587 4285953654
0.0082186759 -1.2501938 0.27066121 4286545791
-0.087611295 -1.2146333 0.27556798 4284900966
-0.02871174 -1.2474498 0.27353883 4285098345
0.030957466 -1.2467889 0.27044114 4287466893
0.073790468 -1.2296951 0.27064398 4289177511
0.10602925 -1.2069257 0.27136043 4289706927
-0.12305208 -1.1756799 0.27286935 4284900710
0.1304346 -1.1752632 0.27388319 4291019972
-0.14391135 -1.1245797 0.27388513 4284900966
0.14740789 -1.1250205 0.27256525 4291414473
0.15165254 -1.1145297 0.27577966 4291414473
-0.1443691 -1.0717894 0.27401307 4284900966
0.14731577 -1.0754557 0.27316076 4290953922
0.15158448 -1.0818529 0.27478987 4291085508
0.13013937 -1.0246674 0.27426288 4289703855
-0.10663957 -0.9938913 0.27347887 4284769892
-0.076526761 -0.97260123 0.27422494 4284835173
-0.02876283 -0.95466846 0.2748265 4284900966
0.024433266 -0.95304352 0.27513438 4285032552
0.07476183 -0.97078323 0.27531594 4286875012
0.1067687 -0.99332237 0.27430794 4288322714
-0.018324632 -0.94904643 0.27355582 4284900966
0.017775938 -0.94849545 0.27609921 4284900966
-0.0056949081 -1.2505682 0.32048184 4285953654
-0.092436627 -1.2107042 0.32273093 4284900966
-0.027108559 -1.2478451 0.32269871 4285098345
0.071946636 -1.2307462 0.31947753 4289111718
0.10638048 -1.2077805 0.32103378 4288461467
0.13158488 -1.1735671 0.32189393 4291085764
-0.1439189 -1.1247573 0.32469475 4284900966
0.14745006 -1.1245923 0.32198998 4291414473
0.15167804 -1.1145663 0.32486752 4291414473
-0.1445246 -1.0722917 0.32423574 4284900966
0.14728153 -1.0754824 0.32415715 4290953922
0.15155491 -1.0827452 0.32524434 4291085508
0.13024768 -1.0245762 0.32546329 4289703855
-0.1071815 -0.99426997 0.32293361 4284900710
-0.076727763 -0.97286069 0.32464895 4284835430
-0.028615486 -0.95466059 0.32543132 4284900966
0.024526369 -0.95290291 0.32505447 4284966759
0.074636839 -0.97075891 0.32546437 4286874756
0.1069227 -0.99333924 0.32538086 4288322714
-0.018237686 -0.94897413 0.32366794 4284900966
0.017850548 -0.94854152 0.32518694 4284900966
-0.092278324 -1.2108433 0.37227654 4284900966
0.11012187 -1.2082247 0.37597668 4284923749
-0.12286656 -1.1759713 0.37344876 4284900966
-0.14408368 -1.1244441 0.37416351 4284900966
0.14736956 -1.1394317 0.37621871 4291414473
0.15183221 -1.1145883 0.37659708 4291414473
-0.14463863 -1.0729599 0.37398225 4284900966
0.14770527 -1.0693115 0.37444371 4290822336
0.15171422 -1.0821842 0.3752245 4291085508
0.13071546 -1.0250794 0.3755157 4289703855
-0.10709235 -0.99426079 0.37320411 4284900966
-0.076678269 -0.97250551 0.37455058 4284900966
-0.028728766 -0.95448703 0.37636933 4284900966
0.024318798 -0.9527778 0.3765052 4284966759
0.074316382 -0.97066844 0.37667149 4286874756
0.10700902 -0.99346662 0.37561592 4288257433
-0.018122373 -0.94896877 0.37420687 4284900966
0.018392412 -0.94853449 0.37488315 4284900966
0.14735027 -1.13949 0.42559552 4291414473
0.15192802 -1.1141906 0.4254019 4291414473
-0.14456317 -1.0726382 0.42428711 4284900966
0.14773674 -1.0697176 0.42615265 4290888129
0.15167955 -1.0828106 0.42573857 4291085508
-0.12711523 -1.0254775 0.42424497 4284835173
0.13035281 -1.0240527 0.42605522 4289638062
-0.02909006 -0.95461494 0.42427975 4284900966
0.024211694 -0.95271993 0.4250015 4285032552
0.073906727 -0.97047931 0.42532036 4286874756
0.10720518 -0.99333882 0.42523682 4288257433
-0.017829889 -0.94900644 0.42394847 4284900966
0.018389389 -0.94860142 0.42509231 4284900966
0.15179312 -1.0822518 0.47522205 4291085508
0.12958974 -1.0233555 0.47583196 4289638062
-0.076483026 -0.97208333 0.47483763 4284835429
