# .PCD v0.7 - Point Cloud Data file format
VERSION 0.7
FIELDS x y z rgb
SIZE 4 4 4 4
TYPE F F F U
COUNT 1 1 1 1
WIDTH 161
HEIGHT 1
VIEWPOINT 0 0 0 1 0 0 0
POINTS 161
DATA ascii
-1.1717789 -0.13045047 0.073999643 4284900966
-1.1281492 -0.14510526 0.073647127 4285229931
-1.0738297 -0.146164 0.073486306 4287335307
-0.99386853 -0.10645036 0.073618263 4290427578
-1.2276738 -0.075535655 0.074797891 4284835173
-1.2508372 -1.4364719e-05 0.083277717 4284900966
-1.2465043 -0.02510838 0.073653638 4284900966
-0.95373207 -0.026872911 0.074193873 4291414473
-1.244756 0.029183282 0.073695906 4284835173
-0.95594603 0.030531324 0.073951691 4290822336
-0.97139156 0.072778746 0.074175186 4289703855
-1.1010802 0.15018815 0.07408344 4284900966
-1.1129382 -0.1511725 0.12524836 4285756275
-1.0886382 -0.15062246 0.12523726 4286808963
-1.2067068 -0.10386024 0.12851842 4284900966
-1.1741233 -0.12878644 0.12582108 4284900966
-1.1284528 -0.14506938 0.12367079 4285229931
-1.07383 -0.1461833 0.12371517 4287335307
-1.027732 -0.13035555 0.12564652 4289177511
-0.99381751 -0.1064413 0.12598985 4290427578
-1.2272629 -0.077328324 0.12586717 4284506208
-0.97092837 -0.073702782 0.125384 4291085508
-1.2465326 -0.02537265 0.12393274 4284900966
-0.9538697 -0.027024023 0.12592214 4291414473
-0.94965333 -0.0041774362 0.12592854 4291348680
-1.2505503 0.0059638591 0.12348385 4284900966
-1.2447037 0.028941421 0.12391867 4284900966
-0.95590121 0.030698949 0.1259755 4290822336
-0.94978154 0.0039206566 0.12594619 4291282887
-1.2279494 0.074526004 0.12341074 4284900966
-0.97031641 0.071038276 0.12564261 4289769648
-1.2063543 0.10542767 0.12291872 4284900966
-1.1752706 0.12765262 0.12347444 4284900966
-1.1234456 0.14644133 0.12422577 4284900966
-1.0712496 0.14477834 0.12421553 4285098345
-1.0233558 0.12628381 0.12435077 4287006342
-0.99593878 0.1076014 0.12420309 4288387995
-1.1011716 0.15021868 0.12404623 4284900966
-1.1128194 -0.15121597 0.17443992 4285756275
-1.0885407 -0.15064834 0.17411366 4286808963
-1.2085068 -0.10275706 0.17411014 4284637794
-1.1766628 -0.12701856 0.17377768 4284900966
-1.1281365 -0.14518127 0.17296372 4285229931
-1.073832 -0.14620261 0.17393428 4287335307
-1.0276024 -0.1303239 0.17428344 4289177511
-0.99376947 -0.10643066 0.17411381 4290427578
-1.2293799 -0.072668657 0.17451382 4284835173
-0.97090548 -0.073769107 0.17440702 4291085508
-1.2500107 -0.0099305511 0.17681931 4284900966
-1.2461581 -0.025643248 0.17342862 4284835173
-0.9539032 -0.027559819 0.17484604 4291414473
-0.94960594 -0.0040956214 0.17412505 4291348680
-1.2505746 0.0059944899 0.17346336 4284900966
-1.2450341 0.02773203 0.17274441 4284900966
-0.95584136 0.030732812 0.17421715 4290822336
-0.94974262 0.0040054796 0.17391805 4291282887
-1.226364 0.076778628 0.17301187 4284900966
-0.97053266 0.071204111 0.17358887 4289769648
-1.2057976 0.10568843 0.17245752 4284900966
-1.1765106 0.12693366 0.17526323 4284900966
-1.12336 0.14648136 0.17403847 4284900966
-1.0717238 0.14471774 0.17426768 4285098345
-1.0235598 0.12636751 0.17423907 4287006342
-0.99611771 0.10778004 0.17407128 4288322202
-1.1012638 0.15024954 0.17446709 4284900966
-1.1126988 -0.15126006 0.22441916 4285756275
-1.0884397 -0.15067521 0.22479239 4286808963
-1.208163 -0.10420676 0.22395368 4284506208
-1.1735233 -0.12925404 0.2237622 4284900966
-1.1249067 -0.14606637 0.22338417 4285295724
-1.0737293 -0.14625864 0.2235615 4287335307
-1.0272539 -0.13010365 0.22488864 4289177511
-0.99393576 -0.10679126 0.22518508 4290427578
-1.2299532 -0.071663335 0.22412248 4284900966
-0.97146338 -0.0746333 0.22532332 4291085508
-1.2503299 -0.0067495257 0.22189121 4284900966
-1.2461565 -0.025456749 0.22296408 4284769380
-0.95400083 -0.027675081 0.2259073 4291414473
-0.94957101 -0.0040562199 0.2259299 4291348680
-1.2507699 0.0053790389 0.22321196 4284900966
-1.2455943 0.025414987 0.22297205 4284900966
-0.9558357 0.030691693 0.22469535 4290822336
-0.94970191 0.0039053797 0.22627883 4291282887
-1.2264541 0.076494351 0.22334786 4284900966
-0.97034895 0.070965774 0.22515216 4289769648
-1.2060152 0.10560696 0.21737528 4284900966
-1.17772 0.12619932 0.22339147 4284900966
-1.1242596 0.1465368 0.22361563 4284900966
-1.0729036 0.14489919 0.22402944 4285032552
-1.0233613 0.12642252 0.22425672 4287006342
-0.9960416 0.10797608 0.22416301 4288387995
-1.1007535 0.1501728 0.223031 4284900966
-1.112578 -0.15130424 0.27436858 4285756275
-1.0883398 -0.15070173 0.27482963 4286808963
-1.2075269 -0.10461179 0.27329794 4284637794
-1.1731943 -0.12983926 0.27414793 4284900966
-1.1257602 -0.14600959 0.27349824 4285295724
-1.0730785 -0.14626868 0.27424335 4287335307
-1.0278496 -0.13052519 0.27464342 4289177511
-0.99394149 -0.10687446 0.27476895 4290427578
-1.2286865 -0.074086443 0.26872465 4284900966
-0.9711436 -0.074405901 0.2745167 4291085508
-1.2465006 -0.02437144 0.27107078 4284769380
-0.95485967 -0.030233506 0.27456835 4291414473
-0.94952917 -0.003996294 0.27400583 4291348680
-1.2458993 0.024614614 0.27248386 4284900966
-0.95581514 0.030549021 0.27485526 4290822336
-0.94966185 0.0039716782 0.27340269 4291282887
-1.2268009 0.076268621 0.27310765 4284835173
-0.97059602 0.071406387 0.27487221 4289769648
-1.2032578 0.10726611 0.27273184 4284900966
-1.1746361 0.12808315 0.27062747 4284900966
-1.1244076 0.14668629 0.27248645 4284900966
-1.0730708 0.14473951 0.2732521 4285098345
-1.0230143 0.12593411 0.27304772 4287072135
-0.9964655 0.10795293 0.27363232 4288322202
-1.1004494 0.1501672 0.27250952 4284900966
-1.091889 0.15004927 0.25480324 4284900966
-1.112457 -0.1513485 0.32448959 4285756275
-1.2089368 -0.10894635 0.32361555 4283519313
-1.1352382 -0.14736201 0.32174656 4285032552
-1.0665938 -0.14604849 0.32211721 4287664272
-1.0262717 -0.1300036 0.32438362 4289177511
-0.99360925 -0.10659514 0.32488462 4290427578
-0.97090709 -0.073538691 0.32437366 4291151301
-0.9548859 -0.030409807 0.32526833 4291414473
-0.94947416 -0.0041337167 0.32612118 4291348680
-0.95579791 0.030593818 0.32509282 4290822336
-0.949619 0.0039512692 0.32585573 4291282887
-0.97097945 0.071675152 0.32595015 4289769648
-1.123652 0.14649661 0.31595337 4284900966
-1.0225066 0.12496626 0.32386598 4287072135
-0.99650216 0.10692944 0.32273233 4288322202
-1.1002085 0.15012556 0.30592757 4284900966
-1.1133759 -0.15129013 0.37155101 4285690482
-1.0635555 -0.14608873 0.37443528 4287795858
-1.0234098 -0.12863106 0.37557754 4289309097
-0.99384564 -0.10685854 0.37509796 4290427578
-0.97087312 -0.073586278 0.37479073 4291085508
-0.95490307 -0.030336916 0.374836 4291414473
-0.95577687 0.030499257 0.37399572 4290822336
-0.94958383 0.0038769902 0.37407181 4291282887
-0.97275442 0.074231662 0.3742325 4289638062
-1.1197302 0.14481708 0.37333539 4284900966
-1.0220442 0.12386271 0.37427759 4287072135
-1.0915514 -0.15113212 0.42469779 4286677377
-1.0642313 -0.14631395 0.42466766 4287795858
-1.0237499 -0.12886114 0.42328867 4289309097
-0.99379772 -0.10685094 0.42511547 4290427578
-0.97130656 -0.074261308 0.4245263 4291085508
-0.95524299 -0.030706475 0.42513508 4291414473
-0.95573425 0.030599404 0.42553923 4290822336
-0.94953811 0.0039174436 0.42520863 4291282887
-1.0224463 0.12405562 0.42461944 4287072135
-0.99496669 0.10429601 0.42490125 4288453788
-0.99401748 -0.10687079 0.47365579 4290427578
-0.96989238 -0.072772205 0.47325 4291151301
-0.94962883 -0.0080006737 0.47286105 4291348680
-0.95576119 0.029972883 0.47414589 4290822336
-0.94949275 0.0039342283 0.47346154 4291282887
-0.97280443 0.074158974 0.4725028 4289638062
