# .PCD v0.7 - Point Cloud Data file format
VERSION 0.7
FIELDS x y z rgb
SIZE 4 4 4 4
TYPE F F F U
COUNT 1 1 1 1
WIDTH 216
HEIGHT 1
VIEWPOINT 0 0 0 1 0 0 0
POINTS 216
DATA ascii
-0.07684207 -0.12588556 0.073055729 4284835173
-0.026885724 -0.1452062 0.072970629 4285229931
-0.12295277 -0.079529248 0.074129544 4284835173
0.12872747 -0.074022099 0.074199565 4291085508
-0.14418373 -0.029201968 0.075639755 4284900966
0.14625879 -0.026425466 0.073675781 4291414473
-0.14604883 0.024313951 0.076404862 4284900966
0.14688841 0.024079664 0.072896473 4290888129
-0.12928231 0.075152077 0.075722814 4284900966
0.12927343 0.073594436 0.072469078 4289704111
-0.10700651 0.10653237 0.074936591 4284900709
0.027633345 0.1445989 0.072654054 4285098345
0.075822428 0.12760702 0.073468514 4286874756
-0.016903173 0.15137948 0.075662561 4284900966
-0.0027622462 -0.15032461 0.12402405 4286151033
-0.10486474 -0.10493308 0.12438896 4284900966
-0.077554025 -0.12537929 0.12362618 4284835173
-0.026922805 -0.14522772 0.1233682 4285229931
0.026285119 -0.14643212 0.12406594 4287269514
0.079318196 -0.12597995 0.12393901 4289440683
0.10745176 -0.10469939 0.12418326 4290427578
-0.12313282 -0.07930205 0.12488748 4284900966
0.12853409 -0.074439891 0.12413873 4291085507
-0.15069287 -0.0040901424 0.12400921 4284900966
-0.14418034 -0.029265894 0.12611474 4284900966
0.14628816 -0.026346456 0.12369943 4291414473
0.15158817 -0.012894141 0.12233565 4291414473
-0.15066954 0.009382138 0.12402739 4284900966
-0.14612676 0.024031803 0.1270777 4284900966
0.14699592 0.02424128 0.12291601 4290888129
0.15145597 0.014206505 0.12273632 4291151301
-0.12874858 0.076268509 0.12473439 4284900966
0.12907332 0.073867463 0.12253357 4289638574
-0.10702284 0.10665323 0.12490866 4284900966
-0.074924581 0.12922953 0.1253795 4284703587
-0.027236519 0.14534868 0.12421213 4284966759
0.028033633 0.1445282 0.12260427 4285098345
0.075727157 0.12770347 0.12278822 4286677377
0.10816731 0.10469092 0.11996303 4288453788
-0.016944012 0.15139981 0.12599966 4284900966
0.014679609 0.1516806 0.1249576 4284900966
-0.0025921941 -0.15036213 0.17323652 4286151033
-0.10447059 -0.10524275 0.1730082 4284900966
-0.077306241 -0.12556729 0.17300449 4284900966
-0.026977295 -0.14529261 0.17292236 4285229931
0.026398929 -0.14654092 0.17286547 4287269514
0.078996733 -0.12603548 0.17261712 4289440683
0.10726485 -0.10464652 0.17464992 4290427578
-0.1231199 -0.079414055 0.17464173 4284900966
0.12871015 -0.074047282 0.17396908 4291085508
-0.15073922 -0.0039961101 0.17442636 4284900966
-0.14424619 -0.02913898 0.17518422 4284900966
0.14628564 -0.025759878 0.17392777 4291414473
0.15159252 -0.013049394 0.17204557 4291414473
-0.15069756 0.0094050141 0.17425799 4284900966
-0.14569578 0.026125021 0.17490092 4284900966
0.14692536 0.024585467 0.17314474 4290888129
0.15120664 0.012604105 0.17492907 4291151301
-0.12901969 0.075885855 0.17367859 4284900966
0.12989564 0.072831303 0.17292196 4289704367
-0.1071991 0.10666168 0.17423746 4284900966
-0.074500978 0.12970459 0.17555216 4284703587
-0.028019531 0.14519759 0.17414601 4284900966
0.027889371 0.14456695 0.17320128 4285098345
0.072737962 0.12926865 0.173107 4286545791
0.10988252 0.10302892 0.17203525 4288585374
-0.016984975 0.15141998 0.17612661 4284900966
0.015008861 0.15187313 0.17543209 4284900966
-0.0024154901 -0.15040126 0.22436127 4286151033
-0.10569254 -0.10438752 0.22713816 4284900966
-0.078491077 -0.12441093 0.22285074 4284835173
-0.026998289 -0.14526953 0.22276677 4285229931
0.026550166 -0.14647697 0.22382247 4287203721
0.07911624 -0.12611605 0.22383554 4289440683
0.10733847 -0.10467581 0.22329983 4290427578
-0.12322613 -0.079296403 0.22463092 4284900966
0.12880804 -0.073955275 0.22391231 4291085508
-0.15078482 -0.003903222 0.22418836 4284900966
0.14645264 -0.025448928 0.22393709 4291414473
0.15161285 -0.013091622 0.22250541 4291414473
-0.15072145 0.0095958682 0.2240036 4284900966
-0.14608535 0.025216108 0.2254086 4284900966
0.14700644 0.024318071 0.22294687 4290888129
0.15145235 0.013854785 0.22168981 4291151301
-0.12954018 0.075061403 0.22487071 4284900966
0.13012068 0.072300658 0.22160672 4289704367
-0.10667571 0.10685759 0.22410865 4284900710
-0.074382707 0.12998955 0.22532192 4284637794
-0.027890982 0.14528497 0.22418118 4284900966
0.027811548 0.1446065 0.22277765 4285098345
0.073005535 0.12869337 0.22254816 4286808963
0.10947625 0.10317072 0.22272247 4288585374
-0.016900977 0.15138748 0.22572009 4284900966
0.014920008 0.15189719 0.22541109 4284900966
-0.0022478581 -0.15043834 0.27286842 4286151033
-0.10674219 -0.10366625 0.27299953 4284900966
-0.078506507 -0.12410612 0.27378318 4284900966
-0.027044367 -0.14526358 0.27316692 4285229931
0.026683263 -0.14648688 0.27305382 4287203721
0.078571603 -0.12633201 0.27361944 4289374890
0.10538387 -0.10671201 0.27787575 4290361785
-0.12330772 -0.079117797 0.27445796 4284900966
0.12891898 -0.073890112 0.27393389 4291085508
-0.15083054 -0.0038104057 0.27392566 4284900966
-0.14433903 -0.02926713 0.2750735 4284900966
0.14599508 -0.02704476 0.27379784 4291414473
0.1515948 -0.013420221 0.27250138 4291414473
-0.15074915 0.0096174804 0.27355292 4284900966
-0.14621116 0.024646519 0.27593064 4284900966
0.14696698 0.024754601 0.27304691 4290953922
0.15134464 0.012900173 0.27215219 4291151301
-0.12995937 0.074564658 0.27569067 4284900966
0.12965485 0.072923072 0.27352977 4289638830
-0.10644681 0.10697648 0.27435774 4284900710
-0.075013846 0.12966014 0.27472419 4284572001
-0.028436238 0.14514263 0.27393341 4285032552
0.028072437 0.14475568 0.27306563 4285098345
0.073149547 0.12875129 0.27198601 4286808963
0.10998507 0.10288508 0.27241269 4288585374
-0.017067211 0.15145987 0.27558503 4284900966
0.014831287 0.1519212 0.27535889 4284900966
-0.0020714165 -0.15047726 0.32393208 4286151033
-0.10693278 -0.10346387 0.32302457 4284900966
-0.075983986 -0.12604472 0.32093653 4284900966
-0.027562778 -0.14485981 0.32400623 4285164138
0.026816163 -0.14654759 0.32378647 4287269514
0.079776146 -0.12573557 0.32178745 4289440683
0.10453111 -0.10709812 0.32896271 4290361785
-0.12361422 -0.078785107 0.32475296 4284835173
0.12897399 -0.073587269 0.3240115 4291085508
-0.15087676 -0.0037164807 0.32426751 4284900966
-0.14441684 -0.029273765 0.32501227 4284900966
0.14642711 -0.025152111 0.32442433 4291414473
0.15151154 -0.012650668 0.32110038 4291414473
-0.15078683 0.0095856488 0.32382226 4284900966
-0.14625531 0.024792125 0.32584691 4284900966
0.14703752 0.024901152 0.32208362 4290953922
0.1516968 0.013753359 0.32182664 4291151301
-0.13081817 0.073410995 0.32475674 4284900966
0.12938848 0.073420502 0.32243982 4289573293
-0.10626002 0.10712992 0.32405099 4284900966
-0.076595098 0.12792777 0.32500613 4284769380
-0.028818382 0.14507289 0.3235693 4285098345
0.028219366 0.14467075 0.32248563 4285098345
0.074118301 0.12811188 0.32211348 4286808963
0.109836 0.10324909 0.32222664 4288519581
-0.01738946 0.15145214 0.32607833 4284900966
0.014740651 0.1519455 0.32531136 4284900966
-0.0042165043 -0.15050836 0.37314457 4286019447
0.0019895833 -0.15053284 0.38251951 4286348412
-0.10694808 -0.10355899 0.3733651 4284900966
-0.075009391 -0.12660414 0.37314495 4284769380
-0.027484437 -0.14493395 0.37316757 4285164394
0.026953742 -0.14650694 0.37320521 4287203977
0.076450713 -0.12811354 0.37344402 4289309097
0.10394187 -0.10788162 0.3734127 4290295992
-0.12344567 -0.078932494 0.37454039 4284900966
0.12925316 -0.073675618 0.37362623 4291085508
-0.14451481 -0.029253783 0.37500876 4284900966
0.14666557 -0.025755718 0.37364861 4291414473
0.15140982 -0.011764022 0.37191382 4291348680
-0.15079208 0.0098851826 0.37360492 4284900966
-0.14608179 0.025825201 0.37583929 4284900966
0.14694476 0.025303263 0.37246537 4290953922
0.15135111 0.013905708 0.37183017 4291151301
-0.13087626 0.072579265 0.37519324 4284639330
0.12899987 0.074070878 0.37117702 4289573037
-0.10623699 0.10719979 0.37440628 4284900966
-0.076236174 0.12811004 0.37489522 4284835173
-0.028718375 0.14496689 0.37270674 4284966759
0.028256562 0.14470454 0.37289864 4285098345
0.076163992 0.12713036 0.3728818 4286940549
0.11000216 0.10315736 0.37210816 4288585374
-0.01764841 0.15146065 0.37588516 4284900966
0.014650261 0.15196976 0.37537134 4284900966
-0.0055731656 -0.15055592 0.42425364 4286019447
0.0021221279 -0.15055156 0.42380634 4286282619
-0.10646442 -0.10395382 0.42406204 4284900966
-0.074844271 -0.12667762 0.42317113 4284637794
-0.027706033 -0.14493071 0.42226014 4285164395
0.02708854 -0.14656819 0.42369255 4286941829
0.077112786 -0.12780766 0.42315739 4289309097
0.10477271 -0.10773501 0.42520431 4290361785
-0.1240724 -0.07849098 0.42285731 4284900966
0.12976445 -0.073503025 0.42174095 4291085508
-0.1505523 -0.0076569784 0.4220196 4284900966
-0.14478436 -0.029178297 0.42434227 4284900966
0.14647058 -0.026938889 0.42253366 4291414473
0.15123956 -0.012321846 0.42420933 4291414473
-0.15082976 0.0098538073 0.42397887 4284900966
-0.14666966 0.024653664 0.42437598 4284900966
0.14709863 0.025304446 0.42231625 4290953922
0.15142298 0.013260578 0.42394623 4291151301
-0.13087805 0.072690338 0.42317134 4284639586
0.12875316 0.074457578 0.4224633 4289573037
-0.10716461 0.10711578 0.42406294 4284900966
-0.077657036 0.12604639 0.42350057 4284900966
-0.029250741 0.14481744 0.42203227 4284900966
0.02830526 0.14474493 0.42255428 4285098345
0.07629101 0.12707847 0.42239547 4286940549
0.10951713 0.10342765 0.42021361 4288585374
-0.016724003 0.15144524 0.42408061 4284900966
0.014713854 0.15190271 0.42505091 4284900966
-0.10716598 -0.10337136 0.47313127 4284835430
-0.075646445 -0.12651758 0.47371277 4284835174
0.10410647 -0.10783733 0.47397178 4290295992
-0.12755129 -0.074822202 0.47315779 4284835173
0.12980995 -0.073219016 0.47302058 4291085508
0.15110192 -0.010980104 0.47311646 4291414473
0.15133156 0.013080188 0.47137696 4291151301
-0.13232031 0.071444705 0.47110415 4284704611
0.12942985 0.07354781 0.47223315 4289638830
-0.10757517 0.10727188 0.47079346 4284900966
-0.076625541 0.12567008 0.46990687 4284835430
0.11029056 0.10303571 0.47193393 4288585374
-0.12733066 0.077833861 0.50387442 4284247388
