# .PCD v0.7 - Point Cloud Data file format
VERSION 0.7
FIELDS x y z rgb
SIZE 4 4 4 4
TYPE F F F U
COUNT 1 1 1 1
WIDTH 1051
HEIGHT 1
VIEWPOINT 0 0 0 1 0 0 0
POINTS 1051
DATA ascii
-0.32375145 -0.42638397 0.012022329 4288322202
-0.27421376 -0.42482066 0.011712587 4288387995
-0.22475164 -0.42544129 0.011612289 4288387995
-0.17562447 -0.42443526 0.011894378 4288387995
-0.12785874 -0.4227626 0.012505559 4288387995
-0.072216876 -0.42467409 0.01263981 4288387995
-0.024626506 -0.42848501 0.012258047 4288387995
0.02359581 -0.42629609 0.012420686 4288387995
0.073914923 -0.42409685 0.012761913 4288387995
0.12421212 -0.42316049 0.012631167 4288387995
0.1758891 -0.42376742 0.012371917 4288387995
0.22579537 -0.42603588 0.012238796 4288387995
0.2758427 -0.42563412 0.01202531 4288387995
0.32514459 -0.42486069 0.012187557 4288387995
0.3761383 -0.42571685 0.011596217 4288387995
0.42563888 -0.42567834 0.011631493 4288387995
0.47578231 -0.42452189 0.0113283 4288387995
0.52508157 -0.42468777 0.011847086 4288387995
0.57523048 -0.42443702 0.011567772 4288387995
0.626966 -0.42548504 0.011754699 4288387995
0.67428023 -0.42270783 0.012005487 4288387995
0.72435468 -0.42331961 0.012058657 4288387995
0.7760601 -0.42443898 0.01163991 4288387995
0.82513994 -0.42420134 0.011370346 4288387995
0.87420535 -0.42486235 0.011616196 4288387995
0.92586809 -0.42473832 0.011736102 4288387995
0.97538161 -0.42475131 0.011678956 4288387995
1.0249751 -0.42507094 0.011705386 4288387995
1.0736206 -0.42589414 0.012417595 4288387995
1.1241022 -0.42392045 0.012185425 4288387995
1.1739792 -0.42779115 0.012137033 4288387995
1.2270186 -0.42116523 0.012577334 4288387995
1.2752393 -0.42779428 0.012258309 4288387995
1.3249792 -0.42756525 0.012090539 4288387995
1.3737552 -0.42545113 0.012137321 4288387995
1.4232557 -0.4248701 0.012255269 4288387995
1.475702 -0.42664942 0.012449689 4288387995
1.5237496 -0.42110944 0.012100995 4288387995
1.5731194 -0.4267101 0.012573541 4288387995
1.6249331 -0.42536819 0.012136631 4288387995
1.6729121 -0.4239594 0.011905585 4288387995
-1.6750197 -0.37572393 0.011619053 4288387995
-1.6237254 -0.37633312 0.011662748 4288387995
-1.5755352 -0.37523872 0.011517628 4288387995
-1.5255389 -0.374385 0.011274014 4288387995
-1.4749159 -0.37395597 0.011554369 4288387995
-1.4245465 -0.37514457 0.011446859 4288387995
-1.3745292 -0.37449157 0.011240948 4288387995
-1.3247801 -0.37471455 0.011094455 4288387995
-1.2749109 -0.37482837 0.011613454 4288387995
-1.2255212 -0.37497789 0.011620582 4288387995
-1.1747222 -0.37519649 0.01150385 4288387995
-1.1250837 -0.37459657 0.011626934 4288322202
-1.0750624 -0.37516204 0.011633817 4288387995
-1.0257689 -0.37661383 0.0116524 4288387995
-0.97144991 -0.37465826 0.011715966 4288387995
-0.92636055 -0.37486604 0.011770249 4288387995
-0.87451118 -0.37616947 0.011721293 4288387995
-0.82366174 -0.37608382 0.011824294 4288387995
-0.77688748 -0.37772307 0.011724431 4288387995
-0.7255367 -0.37654272 0.011765477 4288387995
-0.67565793 -0.37554571 0.011936787 4288387995
-0.62698746 -0.37634456 0.012066325 4288387995
-0.57437438 -0.374533 0.01203727 4288387995
-0.52648693 -0.37634453 0.011885545 4288387995
-0.47595415 -0.37437713 0.011851647 4288387995
-0.42460036 -0.37513775 0.012026555 4288387995
-0.37665698 -0.37381783 0.012272277 4288387995
-0.32449687 -0.37586215 0.011906764 4288322202
-0.27423134 -0.37469596 0.011635762 4288387995
-0.22607847 -0.37594143 0.011753848 4288387995
-0.17576863 -0.37459186 0.01224053 4288387995
-0.1257495 -0.37741306 0.012485662 4288387995
-0.07286232 -0.37326968 0.012719912 4288387995
-0.028143249 -0.37748578 0.012237947 4288387995
0.024979608 -0.37683237 0.012660299 4288387995
0.074250445 -0.37514049 0.012648458 4288387995
0.12548046 -0.37543446 0.012646643 4288387995
0.17843451 -0.37659988 0.012096935 4288387995
0.22502597 -0.37638608 0.011504536 4288387995
0.27697036 -0.3743988 0.011668481 4288387995
0.32633597 -0.37602219 0.01162992 4288387995
0.37593886 -0.37564847 0.011602201 4288387995
0.42598739 -0.37484878 0.011538756 4288387995
0.47516301 -0.37514269 0.011606557 4288387995
0.52421039 -0.37404653 0.011627164 4288387995
0.572393 -0.37535453 0.01223495 4288387995
0.62854892 -0.3697165 0.012122909 4288387995
0.67242783 -0.37538779 0.011998 4288387995
0.72536767 -0.37496862 0.011830559 4288387995
0.775186 -0.37546891 0.011523387 4288387995
0.82525396 -0.37398538 0.011652206 4288387995
0.87502164 -0.37514475 0.011940215 4288387995
0.92533082 -0.37418473 0.012178573 4288387995
0.97493052 -0.37478408 0.011783912 4288387995
1.0242043 -0.37667495 0.011782258 4288387995
1.0742677 -0.37571862 0.011895985 4288387995
1.1266303 -0.37605941 0.012516994 4288387995
1.176422 -0.37739497 0.012109324 4288387995
1.22317 -0.37471262 0.012645774 4288387995
1.2744737 -0.3764388 0.0120933 4288387995
1.3284011 -0.371113 0.012262273 4288387995
1.3716282 -0.37942719 0.01210793 4288387995
1.4262561 -0.3742331 0.012073846 4288387995
1.4766085 -0.37323573 0.012070557 4288387995
1.5277221 -0.37278616 0.012388205 4288387995
1.5743152 -0.37466335 0.012505898 4288387995
1.6251791 -0.37840068 0.012199956 4288387995
1.6731972 -0.37061957 0.011974475 4288387995
-1.6743 -0.32505068 0.01152947 4288387995
-1.6240226 -0.32512599 0.011332579 4288387995
-1.5753217 -0.32476726 0.011598352 4288387995
-1.5251815 -0.32504696 0.011378719 4288387995
-1.4750662 -0.32492089 0.011623689 4288387995
-1.4253696 -0.32467082 0.011226553 4288387995
-1.3745456 -0.32522783 0.011155028 4288387995
-1.3251848 -0.32476425 0.011100748 4288387995
-1.275133 -0.32501766 0.01144974 4288387995
-1.2252644 -0.32460541 0.011413396 4288387995
-1.1752545 -0.32540351 0.011530179 4288322202
-1.1256176 -0.32581782 0.011491925 4288387995
-1.0753798 -0.32461989 0.011455379 4288387995
-1.0252956 -0.32361302 0.011712383 4288387995
-0.97398072 -0.32668671 0.011717468 4288387995
-0.92329526 -0.32595071 0.01178521 4288387995
-0.87548012 -0.32724172 0.011859686 4288387995
-0.82508993 -0.32137382 0.011973172 4288322202
-0.77424693 -0.32531792 0.011971096 4288387995
-0.72278613 -0.32530612 0.0120302 4288387995
-0.67405814 -0.32415798 0.012110007 4288387995
-0.62408674 -0.32487914 0.012118296 4288387995
-0.57589823 -0.32388681 0.012089335 4288387995
-0.52491635 -0.32559448 0.011889667 4288387995
-0.47463632 -0.32556155 0.012081445 4288387995
-0.42428985 -0.32517079 0.012134179 4288387995
-0.37465641 -0.32515115 0.012071278 4288322202
-0.3251577 -0.32513833 0.01189373 4288387995
-0.27502674 -0.32455432 0.011530471 4288387995
-0.22513871 -0.32534406 0.011684073 4288387995
-0.17615175 -0.325257 0.012487881 4288387995
-0.13152298 -0.3284902 0.012417397 4288387995
-0.06935709 -0.32471263 0.012763992 4288387995
-0.026429156 -0.3219589 0.012233294 4288387995
0.029693067 -0.32425416 0.01237758 4288387995
0.072988883 -0.32653373 0.012352106 4288387995
0.12578188 -0.32671934 0.012180065 4288387995
0.17588334 -0.32510737 0.012239174 4288387995
0.22516306 -0.32604137 0.011906971 4288387995
0.27499419 -0.32532507 0.01128345 4288387995
0.3248187 -0.32568374 0.011631581 4288387995
0.3743507 -0.32407948 0.011421228 4288387995
0.42494264 -0.32571712 0.011510263 4288387995
0.47516564 -0.32693768 0.011585207 4288387995
0.52352458 -0.32645905 0.011967866 4288387995
0.57493228 -0.32471624 0.01205295 4288387995
0.62362689 -0.32006997 0.012252204 4288387995
0.67582744 -0.32411698 0.012682183 4288387995
0.72549117 -0.32582629 0.012196243 4288387995
0.77460837 -0.3255668 0.011752964 4288387995
0.82563043 -0.3240183 0.01164331 4288387995
0.87529206 -0.32567707 0.011842254 4288387995
0.92721862 -0.32458714 0.012111012 4288387995
0.97724104 -0.32449454 0.011878315 4288387995
1.02469 -0.32433599 0.011598167 4288387995
1.0755115 -0.32502586 0.011505805 4288387995
1.1253613 -0.32376653 0.011905024 4288387995
1.1746324 -0.32303143 0.012451437 4288387995
1.2247906 -0.32430339 0.012371968 4288387995
1.27632 -0.32553437 0.012142156 4288387995
1.3250291 -0.32668835 0.012420589 4288387995
1.3765756 -0.32678398 0.012082549 4288387995
1.4252253 -0.32508138 0.012022271 4288387995
1.4732718 -0.32684672 0.012104575 4288387995
1.526945 -0.32477337 0.011914977 4288387995
1.5737889 -0.32518023 0.012285883 4288387995
1.624772 -0.32515094 0.012009398 4288387995
1.6746225 -0.3245551 0.012076372 4288387995
-1.6745101 -0.27484241 0.01152395 4288387995
-1.6254843 -0.27516857 0.011393649 4288387995
-1.5753334 -0.27457818 0.011695323 4288387995
-1.5251572 -0.27527791 0.011250859 4288387995
-1.4751823 -0.27529639 0.011251638 4288387995
-1.4251217 -0.2747809 0.011144563 4288387995
-1.3750728 -0.27463397 0.011229482 4288387995
-1.3233322 -0.27421936 0.011330345 4288387995
-1.2746369 -0.27502477 0.01132317 4288387995
-1.2250854 -0.27480555 0.011429175 4288387995
-1.1754723 -0.27503154 0.011524751 4288322202
-1.1267718 -0.27507168 0.011319798 4288387995
-1.0747063 -0.27585858 0.011516628 4288387995
-1.0273519 -0.27538529 0.011703071 4288387995
-0.97290409 -0.27571982 0.011602391 4288387995
-0.92232955 -0.27385587 0.011929367 4288387995
-0.87576979 -0.27438936 0.011822489 4288387995
-0.82388741 -0.27620897 0.011929963 4288387995
-0.77564812 -0.277226 0.012179184 4288387995
-0.72626638 -0.27425247 0.012378324 4288387995
-0.67608315 -0.27417684 0.012049085 4288387995
-0.62524974 -0.27489269 0.011931027 4288387995
-0.57489157 -0.27458906 0.012013381 4288387995
-0.52579528 -0.27487791 0.01184326 4288387995
-0.47398028 -0.27750564 0.011861463 4288387995
-0.42509839 -0.27592564 0.012142489 4288387995
-0.3762466 -0.2742568 0.012100038 4288322202
-0.32582292 -0.27967259 0.012218988 4288387995
-0.27534741 -0.27735525 0.01229346 4288387995
-0.22851712 -0.27654374 0.012691026 4288387995
-0.17568317 -0.27516806 0.013019493 4288387995
-0.12785596 -0.27021518 0.012344364 4288387995
-0.073315643 -0.27629477 0.012483356 4288387995
-0.022312094 -0.2771039 0.01269612 4288387995
0.024379451 -0.27547312 0.012579171 4288387995
0.072728381 -0.27347738 0.012232107 4288387995
0.12610109 -0.27365166 0.012091587 4288387995
0.17433989 -0.27523991 0.012137512 4288387995
0.22227767 -0.27430347 0.011799345 4288387995
0.27488527 -0.27566391 0.011629446 4288387995
0.32535797 -0.27506661 0.0118736 4288387995
0.37416753 -0.27292278 0.011930867 4288387995
0.42382741 -0.27490836 0.012006931 4288387995
0.47487378 -0.27440807 0.012293085 4288387995
0.52311695 -0.27561101 0.012276882 4288387995
0.56976336 -0.27509132 0.011584911 4288387995
0.6322915 -0.2776922 0.012123317 4288387995
0.6759178 -0.27996334 0.012170601 4288387995
0.72568899 -0.27358478 0.01213271 4288387995
0.77344704 -0.27728385 0.011409548 4288387995
0.82475191 -0.27563819 0.011519967 4288387995
0.8744092 -0.27473077 0.012082586 4288387995
0.92532068 -0.27277872 0.011686244 4288387995
0.97536516 -0.27494946 0.01137437 4288387995
1.0247194 -0.274977 0.011466558 4288387995
1.0747746 -0.27456433 0.011652866 4288387995
1.1234542 -0.27422485 0.011608466 4288387995
1.174132 -0.27559599 0.012053704 4288387995
1.2217013 -0.27545542 0.0128064 4288387995
1.2730595 -0.27109554 0.012010796 4288387995
1.3257989 -0.27490163 0.012302386 4288387995
1.374772 -0.27363127 0.012057509 4288387995
1.4262377 -0.27480537 0.012115848 4288387995
1.475672 -0.27339926 0.011894428 4288387995
1.5255232 -0.27755252 0.011859252 4288387995
1.5750129 -0.27707112 0.012363913 4288387995
1.6260949 -0.2726317 0.011871369 4288387995
1.6768192 -0.27422547 0.011611457 4288387995
-1.6725172 -0.22535527 0.01164001 4288387995
-1.6244123 -0.22664893 0.011399327 4288387995
-1.5745683 -0.22498214 0.011497145 4288387995
-1.5228887 -0.22630572 0.011384159 4288387995
-1.4750161 -0.22522067 0.011199845 4288387995
-1.4256157 -0.22516303 0.011069958 4288387995
-1.3746085 -0.22485003 0.011313939 4288387995
-1.3252068 -0.2248686 0.011421345 4288387995
-1.2744876 -0.22506382 0.011254814 4288387995
-1.224876 -0.22529104 0.011331392 4288387995
-1.1749389 -0.22472396 0.011595964 4288322202
-1.1266065 -0.22544469 0.011346556 4288387995
-1.0746163 -0.22561163 0.01153307 4288387995
-1.0245804 -0.22563668 0.011655842 4288387995
-0.97468644 -0.2224445 0.011815471 4288387995
-0.92688143 -0.22467491 0.011948703 4288322202
-0.87267947 -0.22475497 0.011743982 4288387995
-0.82596564 -0.22387862 0.011990476 4288387995
-0.77423269 -0.22675122 0.011970253 4288387995
-0.72472405 -0.22474171 0.012513821 4288387995
-0.67536992 -0.22611524 0.01171165 4288387995
-0.62564355 -0.22674513 0.011623507 4288387995
-0.57596904 -0.22540453 0.011822962 4288387995
-0.52674311 -0.225729 0.012140625 4288387995
-0.47377923 -0.22342204 0.012054748 4288387995
-0.42292365 -0.22627589 0.012179838 4288387995
-0.37733752 -0.22461133 0.012596158 4288322202
-0.32411984 -0.22514513 0.012054261 4288387995
-0.27673638 -0.22696696 0.012136368 4288387995
-0.22824383 -0.22573467 0.012572729 4288387995
-0.17415737 -0.22562742 0.01231634 4288387995
-0.12100737 -0.2264362 0.012437342 4288387995
-0.07146614 -0.22516364 0.012404985 4288387995
-0.024732515 -0.22675844 0.012688259 4288387995
0.022967756 -0.2230206 0.012362434 4288322202
0.074967563 -0.223093 0.012483343 4288387995
0.12569089 -0.2256936 0.012545399 4288387995
0.17489333 -0.22644849 0.01253265 4288387995
0.22545676 -0.22477685 0.011895097 4288387995
0.27456436 -0.22432485 0.011692465 4288387995
0.32564574 -0.22420995 0.011488098 4288387995
0.37496665 -0.2247787 0.011343252 4288387995
0.42472288 -0.22418065 0.011623776 4288387995
0.47418427 -0.22060451 0.011550686 4288387995
0.52441746 -0.22483478 0.011793678 4288387995
0.57397324 -0.2251699 0.011521869 4288387995
0.62366521 -0.22499245 0.012186891 4288387995
0.67282474 -0.22313501 0.012137465 4288387995
0.72615725 -0.2235668 0.012163743 4288387995
0.77576709 -0.22298184 0.011612222 4288387995
0.82625407 -0.22224633 0.011493808 4288387995
0.87614959 -0.2240365 0.011757915 4288387995
0.92537069 -0.22514604 0.01196266 4288387995
0.97410923 -0.2243863 0.011420933 4288387995
1.0246867 -0.22530746 0.011409885 4288387995
1.0737826 -0.22501732 0.011668057 4288387995
1.1248437 -0.22439352 0.011840083 4288387995
1.1740128 -0.22406334 0.011813396 4288387995
1.2241735 -0.22248617 0.012473586 4288387995
1.2722883 -0.22445349 0.011994235 4288387995
1.3261197 -0.22447953 0.012157903 4288322202
1.3723265 -0.22788322 0.012083411 4288387995
1.4290581 -0.22466667 0.011879581 4288387994
1.4760818 -0.22430992 0.011969963 4288387995
1.5247544 -0.22321866 0.011923402 4288387995
1.572455 -0.2252114 0.012135539 4288387995
1.6262723 -0.22608411 0.011716636 4288387995
1.6752375 -0.22618133 0.011588877 4288387995
-1.6752955 -0.17330109 0.011782484 4288387995
-1.6252252 -0.17497277 0.011712156 4288387995
-1.5767685 -0.17579721 0.011362664 4288387995
-1.5246483 -0.1748544 0.011270359 4288387995
-1.4750264 -0.17500907 0.011157108 4288387995
-1.4250846 -0.17461652 0.011118042 4288387995
-1.3752719 -0.17500491 0.011273986 4288387995
-1.325192 -0.17480528 0.011413992 4288387995
-1.2746809 -0.17609228 0.011533696 4288387995
-1.2250823 -0.17519337 0.01144299 4288322202
-1.1745524 -0.1754401 0.011224841 4288387995
-1.1221619 -0.16692711 0.017898288 4287532686
-1.0791224 -0.17025533 0.016608672 4287927444
-1.026149 -0.17555034 0.011632813 4288387995
-0.97296107 -0.17549498 0.011897041 4288387995
-0.92443568 -0.17635655 0.012141474 4288387995
-0.87178355 -0.17635983 0.012137097 4288387995
-0.82401264 -0.17416276 0.01193912 4288387995
-0.77888405 -0.17681816 0.012087738 4288387995
-0.72179818 -0.17497304 0.011729212 4288387995
-0.67470777 -0.17537582 0.01172403 4288387995
-0.62467343 -0.17433245 0.01160431 4288387995
-0.57518631 -0.17450313 0.011824858 4288387995
-0.52585149 -0.17311345 0.011995826 4288387995
-0.4750517 -0.17358057 0.012164298 4288387995
-0.42555147 -0.1758095 0.012289621 4288387995
-0.37199685 -0.17535344 0.011993175 4288387995
-0.32732022 -0.17573996 0.012297571 4288387995
-0.27666894 -0.17240906 0.011788276 4288387995
-0.22571418 -0.17660083 0.012360464 4288387995
-0.17348561 -0.17377821 0.01236058 4288387995
-0.12585969 -0.17827682 0.012326003 4288387995
-0.073676847 -0.17295055 0.012549309 4288387995
-0.017983176 -0.16856974 0.016213296 4287861651
0.02792038 -0.18240678 0.0124578 4288387995
0.076877981 -0.17348883 0.012384053 4288322202
0.12566383 -0.17502022 0.012451212 4288387995
0.17559765 -0.17421101 0.011674392 4288387995
0.22537845 -0.17484736 0.011371993 4288387995
0.27437478 -0.17549741 0.011774315 4288387995
0.32518151 -0.17541307 0.011638603 4288387995
0.37597919 -0.17433223 0.01133732 4288387995
0.424775 -0.17507112 0.011355848 4288387995
0.47530693 -0.17433918 0.011096478 4288387995
0.52534038 -0.1750647 0.01123194 4288387995
0.57584023 -0.17556034 0.011380542 4288387995
0.62583113 -0.17500219 0.011597016 4288387995
0.6755507 -0.17537668 0.011673745 4288387995
0.72547203 -0.17414351 0.011938049 4288387995
0.77397448 -0.17641106 0.011911228 4288387995
0.82563931 -0.1758433 0.012027179 4288387995
0.87481821 -0.17602742 0.011715385 4288387995
0.92586708 -0.17457677 0.011783645 4288322202
0.97441012 -0.17578204 0.01188903 4288322202
1.025539 -0.17457363 0.011386344 4288322202
1.0742272 -0.17495807 0.011410723 4288322202
1.126359 -0.17396964 0.012224563 4288322202
1.1743423 -0.17621726 0.011722231 4288387995
1.2242374 -0.17536826 0.012106993 4288387995
1.2760469 -0.17345105 0.012188797 4288387995
1.325018 -0.17578107 0.011932257 4288387995
1.3764493 -0.17163272 0.011963136 4288387995
1.4222271 -0.1769166 0.012229626 4288387994
1.4760504 -0.17190714 0.011871511 4288387995
1.5254475 -0.17455095 0.011854586 4288387995
1.5744916 -0.17368823 0.011965332 4288387995
1.6259533 -0.17553537 0.011653273 4288387995
1.6743332 -0.17459017 0.011968449 4288387995
-1.6737896 -0.12612469 0.01148695 4288387995
-1.6244351 -0.12717332 0.011881419 4288387995
-1.5747068 -0.125191 0.011363824 4288387995
-1.5221725 -0.12566006 0.011246207 4288387995
-1.4752548 -0.12510914 0.011146981 4288387995
-1.426366 -0.12526606 0.011307832 4288387995
-1.3750256 -0.12482987 0.011399153 4288387995
-1.3243932 -0.12501104 0.011383769 4288387995
-1.2743107 -0.12494905 0.011378321 4288387995
-1.2231405 -0.12318033 0.014104443 4287861651
-0.9808889 -0.11824053 0.020039571 4289177511
-0.92640424 -0.12444179 0.011893122 4288387995
-0.87559879 -0.12591344 0.012659852 4288387995
-0.82519472 -0.12699588 0.011973744 4288387995
-0.77550542 -0.122241 0.012288093 4288387995
-0.72625107 -0.12495995 0.01202353 4288387995
-0.6745761 -0.12451386 0.011751502 4288387995
-0.62560642 -0.12426556 0.011735298 4288387995
-0.57585186 -0.12515044 0.011775407 4288387995
-0.52492124 -0.12430082 0.012023577 4288387995
-0.47463906 -0.12450168 0.012013488 4288387995
-0.42381045 -0.12626597 0.012023202 4288387995
-0.37500495 -0.12293332 0.011701293 4288322202
-0.32513386 -0.12492666 0.012065231 4288387995
-0.27341896 -0.1216206 0.012088606 4288387995
-0.22755738 -0.1230286 0.012161015 4288387995
-0.17476313 -0.12315333 0.012272309 4288322202
-0.12250979 -0.12179171 0.015862649 4287664272
0.12303226 -0.12242589 0.014884442 4288716960
0.17579363 -0.12634596 0.011734999 4288322202
0.22735687 -0.12533367 0.011683962 4288387995
0.27570903 -0.12510285 0.011532293 4288387995
0.32536137 -0.124408 0.011709706 4288387995
0.37594733 -0.12491838 0.011886259 4288387995
0.42549315 -0.12491341 0.011799643 4288387995
0.47475326 -0.12549518 0.011489371 4288387995
0.52518785 -0.12451795 0.011456043 4288387995
0.57555652 -0.12526581 0.011315682 4288387995
0.62489134 -0.12386369 0.011256661 4288387995
0.6748758 -0.12564164 0.011173665 4288387995
0.72477841 -0.1250207 0.011567306 4288387995
0.77165151 -0.12560284 0.011517363 4288387995
0.82606745 -0.12397476 0.011988803 4288322202
0.87408537 -0.12389807 0.011507181 4288387995
0.92552203 -0.12580751 0.011934695 4288322202
0.97894329 -0.12185806 0.017084813 4287335307
1.2221053 -0.12018841 0.017601969 4288848546
1.2769142 -0.12406024 0.011830549 4288387995
1.3255317 -0.12388327 0.011976945 4288387995
1.3755302 -0.12537973 0.011851002 4288387995
1.4248331 -0.1258207 0.012499289 4288322458
1.476917 -0.12607856 0.011987654 4288387995
1.5243468 -0.12558067 0.01164645 4288387995
1.5744992 -0.12442939 0.012069246 4288387995
1.6240509 -0.12566625 0.011692501 4288387995
1.6751784 -0.12519179 0.011284122 4288387995
-1.6763616 -0.073304966 0.011766937 4288387995
-1.6255393 -0.075273342 0.012191593 4288387995
-1.5762771 -0.076407887 0.011487138 4288387995
-1.5257653 -0.075711004 0.011367388 4288387995
-1.4757702 -0.074706577 0.0112402 4288387995
-1.4245942 -0.074684061 0.011236604 4288387995
-1.3750352 -0.075743735 0.011387168 4288387995
-1.323195 -0.075246811 0.011528241 4288387995
-1.2748281 -0.074909404 0.011583589 4288387995
-0.91848469 -0.093117245 0.012415995 4288387995
-0.87451857 -0.073977977 0.012219093 4288387995
-0.82672346 -0.073741294 0.012507333 4288387995
-0.77684116 -0.072819628 0.012095034 4288387995
-0.72501975 -0.075398877 0.012309937 4288387995
-0.67331779 -0.075069673 0.011974762 4288387995
-0.62497503 -0.073858999 0.011799647 4288387995
-0.57423311 -0.076106362 0.011967186 4288387995
-0.52582949 -0.073184595 0.011714038 4288387995
-0.47478536 -0.074138314 0.011709384 4288387995
-0.42471495 -0.074472532 0.011766157 4288322202
-0.37413418 -0.078406945 0.011795106 4288387995
-0.32359132 -0.074986145 0.011844651 4288387995
-0.27549049 -0.075558573 0.012213409 4288387995
-0.22799785 -0.075180672 0.012046956 4288387995
-0.17292508 -0.076160237 0.01233077 4288322202
0.17647268 -0.074468024 0.01190856 4288387995
0.22466876 -0.075648643 0.012021097 4288322202
0.27464569 -0.075185396 0.011871081 4288387995
0.32455018 -0.074748561 0.011702081 4288322202
0.37659314 -0.074393131 0.011525013 4288387995
0.42466602 -0.07537473 0.011318456 4288387995
0.47511846 -0.0748761 0.011471211 4288387995
0.52502495 -0.07500799 0.011624688 4288322202
0.57500654 -0.074713811 0.011699128 4288387995
0.62445694 -0.075749196 0.011443153 4288387995
0.6751523 -0.075661652 0.011310476 4288387995
0.72509855 -0.074969262 0.011786803 4288387995
0.77338141 -0.074720964 0.012012676 4288387995
0.82528597 -0.072160095 0.012459273 4288387995
0.87471348 -0.073863238 0.012003884 4288387995
0.92464173 -0.076350667 0.012415568 4288322202
1.2761865 -0.076963447 0.011820137 4288322202
1.3238254 -0.075790524 0.011918884 4288387995
1.3755571 -0.073944181 0.011941173 4288387995
1.4249396 -0.075040504 0.011771147 4288387995
1.4752562 -0.074956313 0.011549255 4288387995
1.5250045 -0.074420311 0.011875778 4288387995
1.5747892 -0.074763648 0.011815456 4288387995
1.6237171 -0.075757183 0.011540167 4288387995
1.6751772 -0.074636854 0.011592455 4288387995
-1.6779456 -0.025387611 0.011957759 4288387995
-1.6259754 -0.023394778 0.011604736 4288387995
-1.574677 -0.026221396 0.011301535 4288387995
-1.5255342 -0.027434047 0.011539722 4288387995
-1.4766113 -0.026638657 0.01203165 4288387995
-1.422439 -0.026156306 0.011592255 4288387995
-1.3749331 -0.025710078 0.011412817 4288387995
-1.3256049 -0.024374817 0.01141611 4288387995
-1.2752661 -0.026151106 0.011405169 4288322202
-0.92400849 -0.015369298 0.019215062 4289572269
-0.87972575 -0.032301862 0.011683811 4288322202
-0.81976533 -0.026596433 0.012453333 4288387995
-0.77466315 -0.022335241 0.012564185 4288387995
-0.72588176 -0.026484696 0.012219571 4288387995
-0.67453611 -0.024542948 0.012235616 4288387995
-0.62232381 -0.028471068 0.012000294 4288387995
-0.57627052 -0.022908382 0.011653841 4288387995
-0.52476221 -0.024852684 0.011502479 4288387995
-0.4745526 -0.024963317 0.011527874 4288387995
-0.4240016 -0.024142763 0.011656991 4288322202
-0.37632322 -0.025140859 0.011996863 4288387995
-0.32653061 -0.024172042 0.012071073 4288387995
-0.27408364 -0.027032876 0.012087431 4288387995
-0.22526041 -0.02471008 0.012267765 4288387995
-0.16931714 -0.020230368 0.016074646 4287664272
0.16954899 -0.022714078 0.016421607 4289111718
0.22437003 -0.026315102 0.011635793 4288322202
0.27512038 -0.02492878 0.011348091 4288387995
0.32495508 -0.024500662 0.011388808 4288387995
0.37480155 -0.024537453 0.011512267 4288387995
0.4248693 -0.025672549 0.011488347 4288387995
0.47489783 -0.025552331 0.011425887 4288387995
0.52544791 -0.02439438 0.011482141 4288387995
0.57512951 -0.025017286 0.011793818 4288387995
0.6243391 -0.025239855 0.011708199 4288322202
0.67472672 -0.025514856 0.011836536 4288387995
0.72516489 -0.025036581 0.011859739 4288322202
0.77487677 -0.024793141 0.012030822 4288387995
0.82600021 -0.024551084 0.012173439 4288387995
0.87350565 -0.02554982 0.011776223 4288387995
0.9321928 -0.021215867 0.018967593 4287137928
1.2713305 -0.020701412 0.01613041 4289045925
1.3246472 -0.024822462 0.011895106 4288387995
1.3745627 -0.025028223 0.011825049 4288387995
1.4246615 -0.024332635 0.0117188 4288387995
1.4755405 -0.025099002 0.01187551 4288387995
1.5244162 -0.024401033 0.011650625 4288387995
1.5761136 -0.026162909 0.011403471 4288387995
1.6249149 -0.025024995 0.011453645 4288387995
1.6746476 -0.025306573 0.011249226 4288387995
-1.6749856 0.026291985 0.011347737 4288387995
-1.6248124 0.025132611 0.011194679 4288387995
-1.5751076 0.025587633 0.011307526 4288387995
-1.5281472 0.029105769 0.011233374 4288387995
-1.4741561 0.025158016 0.011477754 4288387995
-1.4231877 0.020717276 0.011554495 4288387995
-1.3742228 0.023532994 0.011538737 4288387995
-1.3253566 0.025123306 0.011556702 4288256409
-1.2698064 0.021388726 0.015654596 4287598479
-0.92717946 0.020362798 0.01557822 4288848546
-0.87725151 0.02597145 0.012430517 4288387995
-0.82742965 0.02769158 0.012056994 4288387995
-0.77371371 0.023676336 0.013258412 4288387995
-0.72259772 0.022991052 0.012188808 4288387995
-0.67440528 0.026740843 0.011964318 4288387995
-0.62519056 0.027166273 0.011612489 4288387995
-0.5746128 0.026093984 0.011410511 4288387995
-0.52499431 0.025423491 0.011729339 4288387995
-0.4763346 0.025810916 0.011948734 4288387995
-0.42588323 0.024604408 0.012013885 4288387995
-0.37434864 0.025715634 0.012209262 4288387995
-0.32404131 0.023650719 0.011967877 4288387995
-0.27445829 0.023535311 0.012171263 4288322202
-0.22299013 0.02684851 0.01199771 4288322202
-0.16930665 0.021353615 0.018103817 4287401100
0.16723455 0.020458274 0.017233841 4289243304
0.22514354 0.024604309 0.011822465 4288387995
0.274847 0.024490451 0.011968624 4288387995
0.32504499 0.025415236 0.011667758 4288387995
0.37484321 0.025195988 0.011390967 4288387995
0.42465091 0.025150469 0.011593022 4288387995
0.47483611 0.025331058 0.01153842 4288387995
0.52490288 0.02220612 0.011841204 4288387995
0.57651061 0.025960937 0.01187844 4288387995
0.62499487 0.025356125 0.012145221 4288387995
0.67520392 0.025150333 0.011502603 4288387995
0.72634673 0.024042375 0.011738806 4288387995
0.77392942 0.024855768 0.011814142 4288322202
0.82498723 0.031733584 0.012012945 4288387995
0.87586397 0.026049122 0.011996985 4288387995
0.93191034 0.022103403 0.018663911 4287137928
1.2728984 0.022231521 0.014342229 4288848546
1.3253388 0.02715881 0.011880327 4288322202
1.3740511 0.024576079 0.011839937 4288387995
1.4262885 0.023021018 0.011884489 4288387995
1.4761286 0.024405461 0.011617498 4288387995
1.5253412 0.026263202 0.011455775 4288387995
1.5760332 0.025506906 0.011583424 4288387995
1.6247678 0.024390111 0.011531161 4288387995
1.6751964 0.024719363 0.011512653 4288387995
-1.6746591 0.075208806 0.011110771 4288387995
-1.626011 0.072916217 0.011261314 4288387995
-1.5762833 0.075317964 0.011755805 4288387995
-1.5272655 0.075360298 0.011572227 4288387995
-1.4757662 0.078756735 0.011951176 4288387995
-1.4217119 0.076421991 0.011731779 4288387995
-1.3749542 0.076560028 0.011542697 4288387995
-1.3225698 0.074416287 0.011348079 4288387995
-1.2747885 0.074575983 0.011184525 4288322202
-0.93387455 0.07614322 0.01203037 4288387995
-0.8728444 0.073478125 0.012055027 4288322202
-0.82403529 0.07529401 0.012360281 4288387995
-0.77605528 0.07365033 0.012766 4288387995
-0.72619331 0.075530879 0.012043355 4288387995
-0.67527312 0.073744386 0.011388336 4288387995
-0.62481618 0.0750935 0.011435625 4288387995
-0.57483661 0.075251475 0.011408282 4288387995
-0.52463531 0.075610049 0.012254872 4288387995
-0.47525689 0.072850302 0.012005464 4288322202
-0.42479259 0.075862028 0.012009352 4288387995
-0.37498254 0.073012188 0.011836956 4288387995
-0.32341409 0.078401782 0.012211559 4288387995
-0.27679244 0.073254891 0.012103962 4288387995
-0.22496521 0.074985377 0.012243576 4288387995
-0.17331886 0.075995035 0.012082246 4288322202
0.17590381 0.074443065 0.012020179 4288322202
0.22626883 0.074239612 0.01188447 4288387995
0.27498329 0.075153567 0.011837803 4288387995
0.32575127 0.074329145 0.011619112 4288387995
0.37478083 0.074921146 0.011393293 4288387995
0.42490306 0.075225763 0.011320832 4288387995
0.47521773 0.0751727 0.011729048 4288387995
0.52544981 0.075945102 0.0114474 4288387995
0.57540822 0.074925393 0.011828177 4288387995
0.62494665 0.074774168 0.011906787 4288387995
0.67402369 0.074555367 0.012115499 4288322202
0.7237013 0.0771299 0.012219205 4288387995
0.77295023 0.074018054 0.012186543 4288322202
0.82478184 0.074131742 0.012455116 4288387995
0.87514603 0.074454054 0.012370253 4288322202
0.92483473 0.072837591 0.012082725 4288387995
1.2767107 0.072549514 0.011701911 4288387995
1.3257774 0.074116364 0.011809398 4288322202
1.3759112 0.074517459 0.01193376 4288322202
1.4243618 0.076855682 0.011791223 4288387995
1.4761972 0.073943436 0.012003383 4288322202
1.5258731 0.075161278 0.011660665 4288387995
1.5743234 0.075074099 0.011547202 4288387995
1.6247563 0.075653896 0.011369719 4288387995
1.6755879 0.074231103 0.011870037 4288387995
-1.6752325 0.12468814 0.011124622 4288387995
-1.6243869 0.12502925 0.011204645 4288387995
-1.5744438 0.12614672 0.011617567 4288387995
-1.5228724 0.12362213 0.011966447 4288387995
-1.4737725 0.12666257 0.011706504 4288387995
-1.425469 0.12707828 0.012879995 4288387995
-1.377332 0.12472909 0.011583498 4288387995
-1.3239359 0.12367519 0.01126841 4288387995
-1.2750165 0.12477188 0.011332257 4288387995
-1.2203255 0.11969922 0.016867109 4287269514
-0.98109746 0.11959635 0.017175587 4288387995
-0.92638499 0.12989302 0.012553676 4288387995
-0.87470967 0.12599257 0.011983652 4288322202
-0.82457733 0.12536134 0.012254998 4288387995
-0.77452266 0.12377896 0.012462126 4288387995
-0.72517186 0.12265603 0.012455015 4288387995
-0.67465401 0.12475108 0.011420677 4288387995
-0.62433398 0.1257911 0.011284065 4288387995
-0.5759936 0.12565067 0.011562454 4288387995
-0.52525109 0.12511463 0.011959219 4288387995
-0.47650966 0.12429989 0.011851357 4288387995
-0.42570624 0.12434917 0.011739266 4288387995
-0.37551314 0.12605938 0.01173644 4288387995
-0.3246938 0.12518963 0.012537661 4288387995
-0.27693832 0.12476802 0.012123084 4288387995
-0.22661379 0.12811054 0.012303008 4288387995
-0.17751904 0.12453162 0.011979331 4288322202
-0.11872722 0.12016374 0.019752372 4287006342
0.11953588 0.11758494 0.018776961 4288387995
0.17459749 0.12477253 0.012065277 4288322202
0.22726002 0.12592337 0.011754255 4288387995
0.27488005 0.12598167 0.01177439 4288387995
0.32516879 0.12567624 0.011600389 4288387995
0.37456998 0.12474609 0.011665625 4288387995
0.42491195 0.12525135 0.011751005 4288387995
0.4753848 0.12490907 0.011991377 4288322202
0.5253433 0.12536591 0.011768898 4288387995
0.57470804 0.12514172 0.011890483 4288322202
0.62526232 0.12469771 0.011761972 4288387995
0.67501479 0.12449249 0.011735863 4288387995
0.72509861 0.12525423 0.011723523 4288387995
0.77628881 0.12580395 0.011871919 4288387995
0.82080841 0.12349556 0.01241568 4288387995
0.87764913 0.12699792 0.01208573 4288387995
0.92509651 0.12680759 0.012444591 4288387995
0.97930461 0.11982328 0.017916707 4287401100
1.2214729 0.11824823 0.016897013 4288387995
1.2749418 0.12364749 0.011729526 4288387995
1.3245695 0.12674873 0.011966852 4288387995
1.3763448 0.12481843 0.011742804 4288322202
1.4243757 0.12542218 0.011739328 4288387995
1.475757 0.12461811 0.012127761 4288387995
1.523783 0.12630418 0.011425284 4288387995
1.5750852 0.12442872 0.011846222 4288387995
1.6251866 0.12502635 0.01175833 4288387995
1.6742686 0.12566458 0.011610561 4288387995
-1.6749701 0.17536467 0.011313183 4288387995
-1.6243963 0.17526312 0.011427347 4288387995
-1.5745299 0.17702298 0.011582397 4288387995
-1.5242923 0.1732716 0.01207721 4288387995
-1.4730511 0.17611116 0.012028887 4288387995
-1.4246984 0.17412592 0.012023303 4288322202
-1.3746991 0.17552146 0.011248569 4288387995
-1.3251325 0.17486504 0.011435905 4288387995
-1.2751371 0.17473049 0.011187193 4288387995
-1.2248926 0.17513849 0.01117075 4288387995
-1.1747593 0.17451441 0.011479353 4288322202
-1.1225777 0.17209487 0.013709364 4287927444
-1.0748674 0.1753218 0.011438331 4288322202
-1.0248578 0.17485856 0.011195489 4288322202
-0.97565401 0.17810373 0.012124049 4288322202
-0.92366135 0.17802429 0.011993292 4288387995
-0.8744269 0.17418687 0.012049506 4288387995
-0.82683617 0.17595989 0.012548958 4288387995
-0.77818668 0.17361698 0.012444998 4288387995
-0.72923142 0.17630644 0.012066997 4288387995
-0.6724574 0.17604646 0.011813024 4288387995
-0.62421322 0.17506726 0.011371576 4288387995
-0.5758006 0.1745526 0.01162698 4288387995
-0.52600241 0.17483494 0.01167564 4288387995
-0.47532794 0.17523883 0.011618284 4288322202
-0.42579025 0.17478314 0.011684304 4288387995
-0.37457162 0.17513916 0.012087129 4288387995
-0.32459843 0.17329355 0.012196885 4288387995
-0.27256566 0.17303462 0.012022296 4288387995
-0.22351611 0.17395008 0.012031179 4288387995
-0.17085008 0.1770439 0.012323317 4288322202
-0.1268438 0.17482539 0.012335793 4288387995
-0.074726678 0.17300433 0.011950198 4288322202
-0.021198239 0.16649954 0.020266717 4287006342
0.020156942 0.17021026 0.018041514 4287269514
0.075506046 0.1759842 0.011907395 4288387995
0.12603112 0.17553367 0.011746623 4288387995
0.17432688 0.17590541 0.012067058 4288322202
0.22522891 0.17520341 0.011890505 4288387995
0.27484748 0.17441271 0.011980963 4288387995
0.32455039 0.17500889 0.011957746 4288387995
0.37475288 0.17514299 0.012135535 4288387995
0.42475066 0.17402075 0.011585522 4288387995
0.47577053 0.17550153 0.01179029 4288387995
0.52625495 0.17465369 0.011894898 4288387995
0.57543963 0.17486021 0.011815332 4288387995
0.62515467 0.17415053 0.011903422 4288387995
0.67604876 0.17554224 0.012131486 4288387995
0.72609383 0.17509575 0.012353391 4288387995
0.77606052 0.17652346 0.012127533 4288387995
0.82513791 0.17528607 0.012637873 4288387995
0.8747313 0.17455541 0.012608397 4288387995
0.92531693 0.17598848 0.012292822 4288387995
0.97322756 0.17600049 0.012555358 4288322202
1.0202845 0.17443758 0.012727983 4288387995
1.0794582 0.16709048 0.021673875 4286874756
1.1238258 0.17532022 0.012348851 4288387995
1.1756305 0.17789631 0.011767108 4288322202
1.2251513 0.17243288 0.012376938 4288387995
1.2763072 0.17587779 0.012032912 4288387995
1.3240457 0.17493606 0.011961121 4288387995
1.3741901 0.17401561 0.011584134 4288387995
1.4236503 0.17440878 0.01167443 4288322202
1.475343 0.17490004 0.012060586 4288387995
1.5245614 0.17502613 0.011842739 4288387995
1.5748183 0.17516382 0.011753414 4288387995
1.6247878 0.17521062 0.011364489 4288387995
1.6756196 0.17546034 0.011350377 4288387995
-1.6746756 0.22481689 0.011236954 4288387995
-1.6255165 0.22470744 0.011550284 4288387995
-1.5752807 0.22677666 0.012321431 4288387995
-1.5258656 0.2254367 0.01203528 4288387995
-1.4745355 0.22635445 0.011811372 4288387995
-1.4239908 0.22394715 0.011789891 4288387995
-1.3753371 0.2249103 0.011173615 4288387995
-1.3257742 0.22477381 0.011360072 4288387995
-1.2749943 0.22527547 0.011262635 4288387995
-1.2249216 0.22480749 0.011153284 4288387995
-1.1761973 0.22481139 0.011610556 4288387995
-1.1260204 0.22607307 0.011276566 4288387995
-1.0749234 0.22492117 0.01164449 4288387995
-1.0227227 0.22302192 0.011556578 4288387995
-0.975308 0.22402571 0.011731739 4288387995
-0.92326128 0.22458348 0.011605769 4288322202
-0.8749119 0.22583184 0.012213689 4288322202
-0.82629865 0.2255255 0.011843281 4288387995
-0.77847475 0.22656476 0.012393938 4288387995
-0.72971141 0.22664689 0.012103635 4288387995
-0.67283386 0.22483987 0.011581185 4288387995
-0.62522256 0.22465202 0.011544398 4288387995
-0.57444084 0.22452237 0.011732611 4288387995
-0.52559823 0.22484256 0.011775052 4288387995
-0.4762159 0.22609943 0.011568707 4288322202
-0.42553782 0.22497582 0.011736359 4288387995
-0.37600943 0.22356345 0.012047797 4288387995
-0.32548234 0.22642042 0.012054338 4288387995
-0.27683932 0.22459444 0.011780454 4288387995
-0.22194919 0.22715308 0.011929522 4288387995
-0.17681751 0.2246742 0.012379679 4288387995
-0.12712084 0.22737345 0.012241616 4288387995
-0.074778937 0.2253018 0.01177628 4288387995
-0.02441074 0.22568811 0.012311953 4288387995
0.025242327 0.22541787 0.012253997 4288387995
0.074182346 0.22396684 0.01205254 4288387995
0.12496308 0.22493781 0.012326818 4288387995
0.17450729 0.22510673 0.011848908 4288387995
0.22544265 0.2228172 0.011334855 4288387995
0.27532652 0.22446425 0.012090098 4288387995
0.32539639 0.22344017 0.011736064 4288387995
0.37756196 0.22522856 0.011884188 4288387995
0.42495501 0.22581223 0.011922152 4288387995
0.4734174 0.22473964 0.012153178 4288387995
0.52308232 0.22510882 0.012008719 4288387995
0.57274258 0.22289456 0.012058815 4288387995
0.6245575 0.2251651 0.011916962 4288387995
0.67238754 0.22391734 0.012157359 4288387995
0.72430301 0.22709385 0.012131399 4288387995
0.77340019 0.22216117 0.012271723 4288387995
0.82060713 0.22495387 0.012268446 4288387995
0.87272674 0.22832504 0.012547381 4288387995
0.92570847 0.22573903 0.012356324 4288387995
0.97727334 0.22736083 0.012367785 4288387995
1.0216968 0.22386581 0.012697634 4288387995
1.0776117 0.22764133 0.012432956 4288387995
1.1253831 0.22366619 0.012000399 4288387995
1.1731642 0.22681837 0.012138539 4288387995
1.2267547 0.22591245 0.01194167 4288387995
1.2723781 0.22648655 0.011801062 4288387995
1.3220196 0.22480951 0.012351179 4288387995
1.3739355 0.22583379 0.011471299 4288387995
1.4264581 0.22532153 0.011680737 4288387995
1.475587 0.22498089 0.011759579 4288322202
1.5250156 0.2247771 0.011944971 4288387995
1.5748533 0.22665851 0.011473508 4288387995
1.6253084 0.2248859 0.011329009 4288387995
1.675035 0.22492096 0.011718443 4288387995
-1.673315 0.27362177 0.01132742 4288387995
-1.6251895 0.27539897 0.011588447 4288387995
-1.5748302 0.27583051 0.012100532 4288387995
-1.5235146 0.27549249 0.011725207 4288322202
-1.4758203 0.2759158 0.011426236 4288387995
-1.424371 0.27450633 0.011603905 4288387995
-1.3745559 0.27633646 0.011115051 4288387995
-1.3249192 0.27524367 0.011408899 4288387995
-1.2748369 0.2751188 0.011194456 4288387995
-1.2251827 0.27474698 0.011481174 4288387995
-1.1750703 0.2750611 0.011610039 4288387995
-1.1252952 0.27518582 0.011444714 4288387995
-1.0757241 0.27539107 0.011684665 4288387995
-1.0239613 0.27492961 0.011531072 4288387995
-0.97553045 0.2746549 0.011349529 4288387995
-0.9254204 0.27485937 0.01160056 4288387995
-0.87624985 0.27507958 0.01180799 4288387995
-0.82540947 0.27688679 0.01181286 4288387995
-0.77319282 0.27450365 0.012081983 4288387995
-0.72415143 0.27560204 0.011657311 4288387995
-0.67509973 0.27567071 0.011930003 4288387995
-0.62433946 0.27505931 0.011904385 4288387995
-0.57499206 0.27523017 0.011765108 4288387995
-0.52452368 0.2727071 0.011794642 4288387995
-0.47568625 0.27561492 0.011549397 4288387995
-0.42644906 0.27372542 0.011662635 4288387995
-0.37560719 0.27521363 0.011901126 4288387995
-0.32432649 0.27434278 0.011942887 4288387995
-0.27565598 0.2759918 0.011969417 4288387995
-0.22436805 0.27690536 0.01190226 4288387995
-0.17558047 0.27426982 0.012057916 4288387995
-0.12437524 0.27523693 0.012186946 4288387995
-0.073803052 0.27287018 0.012215932 4288387995
-0.028179325 0.27658185 0.012193057 4288387995
0.026331075 0.27461499 0.012035498 4288387995
0.076575078 0.27579644 0.01177129 4288387995
0.12462539 0.27317932 0.012243583 4288387995
0.17376597 0.2757284 0.01177765 4288387995
0.22517942 0.27678016 0.01208768 4288387995
0.27534777 0.27475488 0.012444793 4288387995
0.32473949 0.27424821 0.0121581 4288387995
0.37380084 0.27443263 0.012221374 4288387995
0.42341205 0.27558091 0.012153193 4288387995
0.47408685 0.27479759 0.011873667 4288387995
0.52438158 0.27611282 0.012041165 4288387995
0.57441133 0.27312988 0.012026668 4288387995
0.62323552 0.27681407 0.012144969 4288387995
0.67314506 0.27610564 0.012295958 4288387995
0.72384363 0.2745285 0.01246084 4288387995
0.77550215 0.27487645 0.012542658 4288387995
0.82444733 0.27486688 0.012345104 4288387995
0.87498194 0.27490482 0.012598362 4288387995
0.92529929 0.2737335 0.01262433 4288387995
0.9728325 0.27531829 0.012235927 4288387995
1.0256836 0.27266619 0.01276249 4288387995
1.0774107 0.27781808 0.012253784 4288387995
1.1271402 0.27174976 0.011784985 4288387995
1.1769253 0.27547142 0.012369247 4288387995
1.2230548 0.27519387 0.011721188 4288387995
1.2746297 0.27688953 0.012159363 4288387995
1.3241404 0.27584168 0.011958207 4288387995
1.3748116 0.27526665 0.011795591 4288387995
1.4255863 0.27630973 0.011384753 4288387995
1.4763821 0.27714297 0.011671296 4288322202
1.5249214 0.27480805 0.011731782 4288387995
1.575009 0.27508584 0.012018069 4288387995
1.6244686 0.27499187 0.011640728 4288387995
1.6750038 0.27482846 0.011266876 4288387995
-1.6748877 0.32417503 0.011690449 4288387995
-1.6245165 0.3245188 0.011852507 4288387995
-1.5759221 0.32487205 0.011812549 4288387995
-1.5253243 0.32429031 0.011126898 4288387995
-1.4769765 0.32451078 0.011379987 4288387995
-1.424961 0.32493922 0.011525434 4288387995
-1.3752751 0.32471877 0.011164529 4288387995
-1.3254138 0.32468021 0.0113823 4288387995
-1.2754607 0.32497737 0.011456729 4288387995
-1.2252327 0.32485285 0.011476816 4288387995
-1.1753961 0.32502282 0.011221754 4288387995
-1.1247908 0.32483432 0.01157747 4288387995
-1.0751811 0.32516709 0.011840546 4288387995
-1.0250643 0.32478029 0.011378789 4288387995
-0.97480398 0.32485694 0.011201994 4288387995
-0.92501098 0.32490245 0.011308236 4288387995
-0.87416774 0.32583797 0.011463285 4288387995
-0.82547921 0.3254765 0.011665931 4288387995
-0.77550423 0.32515395 0.011712169 4288387995
-0.72500801 0.3255603 0.011549881 4288387995
-0.67577797 0.32467106 0.011600462 4288387995
-0.62503785 0.32578981 0.012108552 4288387995
-0.57544386 0.32375214 0.012149583 4288387995
-0.52731884 0.32483572 0.012183157 4288387995
-0.47455615 0.32495737 0.011981058 4288387995
-0.42409614 0.32622099 0.012065114 4288387995
-0.37523219 0.32488358 0.012006293 4288387995
-0.32373193 0.32692492 0.012613967 4288387995
-0.27530146 0.32061997 0.011924889 4288387995
-0.22053534 0.32410848 0.012228737 4288387995
-0.17349239 0.32347712 0.011641976 4288387995
-0.12673995 0.32741961 0.012225341 4288387995
-0.07418853 0.32767558 0.011598948 4288387995
-0.027080962 0.32711676 0.011870518 4288387995
0.024971671 0.32435039 0.012048524 4288387995
0.07531815 0.32448223 0.012146575 4288387995
0.12490503 0.32447311 0.011885042 4288387995
0.17627648 0.32563382 0.011452222 4288387995
0.22536497 0.32610908 0.012069697 4288387995
0.27547503 0.32390028 0.012302012 4288387995
0.32606098 0.32424653 0.012259239 4288387995
0.37473452 0.32637027 0.012172926 4288387995
0.42580199 0.32666078 0.012114298 4288387995
0.47512841 0.32540572 0.012100136 4288387995
0.52376002 0.32552278 0.012252655 4288387995
0.57391995 0.3244127 0.012228172 4288387995
0.62439191 0.32350072 0.01233692 4288387995
0.67376655 0.32512811 0.011939252 4288387995
0.72237521 0.32575187 0.012144117 4288387995
0.77365875 0.32704949 0.011808045 4288387995
0.82403845 0.32770178 0.011746421 4288387995
0.87699825 0.32794648 0.012595648 4288387995
0.92329371 0.32335576 0.012679 4288387995
0.97536695 0.32497972 0.012191796 4288387995
1.0227681 0.32349455 0.012093266 4288387995
1.0748968 0.32597053 0.012929168 4288387995
1.1258274 0.32295632 0.011759801 4288387995
1.1765769 0.32309079 0.01168411 4288387995
1.2271891 0.32627875 0.012141686 4288387995
1.2795953 0.32708126 0.012275082 4288387995
1.3223929 0.32347336 0.012089389 4288387995
1.3753724 0.32275108 0.011638731 4288387995
1.4246917 0.32381105 0.011655166 4288387995
1.474903 0.3241168 0.011393134 4288387995
1.5250369 0.32478324 0.011695649 4288322202
1.5747359 0.32498103 0.011708864 4288322202
1.6248765 0.32475868 0.0116923 4288387995
1.6753272 0.32477286 0.011321633 4288387995
-1.677225 0.37571251 0.012222526 4288387995
-1.621893 0.37559119 0.012257073 4288387995
-1.5773528 0.3739039 0.0113922 4288387995
-1.526527 0.3714869 0.011481645 4288387995
-1.4734982 0.37237093 0.011357424 4288387995
-1.4254423 0.37484029 0.011389527 4288387995
-1.3749646 0.37482005 0.011315503 4288387995
-1.3252151 0.37473446 0.011785951 4288387995
-1.2757361 0.37476712 0.011758235 4288387995
-1.2258003 0.37440118 0.011453424 4288387995
-1.175239 0.37532714 0.011399445 4288387995
-1.1244069 0.37366298 0.011637023 4288387995
-1.0749199 0.37539437 0.012065322 4288387995
-1.0250857 0.37524676 0.011357589 4288387995
-0.97492808 0.37457913 0.011291052 4288387995
-0.92657435 0.37499079 0.011426945 4288387995
-0.87515849 0.37504402 0.011263914 4288387995
-0.82451701 0.3748922 0.01131842 4288387995
-0.77478808 0.37503338 0.011893339 4288387995
-0.72575885 0.37623438 0.01158496 4288387995
-0.67586929 0.37446746 0.011653624 4288387995
-0.62393725 0.37449667 0.01178537 4288387995
-0.57714498 0.37415585 0.01173215 4288387995
-0.52600563 0.37367821 0.011983895 4288322202
-0.47697848 0.37456495 0.01191133 4288387995
-0.42476079 0.37579769 0.012211368 4288387995
-0.37804821 0.3723529 0.012101842 4288387995
-0.32492435 0.3764005 0.012312207 4288387995
-0.27625537 0.37527233 0.011916057 4288387995
-0.22667944 0.37217349 0.01233173 4288387995
-0.1793184 0.37462386 0.012068787 4288387995
-0.12868711 0.37749106 0.011887264 4288387995
-0.074627742 0.37208992 0.01178536 4288387995
-0.023695577 0.3742094 0.011683979 4288387995
0.025086712 0.37381226 0.011670834 4288387995
0.074946009 0.37483063 0.011633672 4288387995
0.1247158 0.37555462 0.011457584 4288387995
0.17444132 0.37493119 0.011264247 4288387995
0.22430816 0.37547329 0.012412633 4288387995
0.27488801 0.37518489 0.012328245 4288387995
0.32639337 0.3725999 0.012343576 4288387995
0.37562978 0.3739301 0.01225008 4288387995
0.42443699 0.37372932 0.012600342 4288387995
0.47255558 0.37336904 0.012514412 4288387995
0.5252291 0.37530085 0.012259732 4288387995
0.57523757 0.37451398 0.011802736 4288387995
0.62523276 0.3752076 0.011759494 4288387995
0.67543393 0.37501639 0.011725216 4288387995
0.72532594 0.37484607 0.011982671 4288387995
0.77567077 0.37467203 0.012022798 4288387995
0.82597136 0.37449795 0.011775468 4288387995
0.8739965 0.3776972 0.012278792 4288387995
0.9255681 0.37391803 0.012588204 4288387995
0.97375196 0.37347487 0.012455195 4288387995
1.0240091 0.37546176 0.012392187 4288387995
1.0746462 0.37479979 0.012885225 4288387995
1.1261579 0.37472826 0.011757382 4288387995
1.1769067 0.37418455 0.011666754 4288387995
1.2287774 0.3718783 0.011586571 4288387995
1.2762369 0.37331972 0.011854606 4288387995
1.3235312 0.37405819 0.011789785 4288387995
1.37409 0.37729257 0.011344559 4288387995
1.4263601 0.37516862 0.011680344 4288387995
1.476828 0.37584585 0.011393165 4288387995
1.5261662 0.37465543 0.011721956 4288387995
1.5747954 0.375245 0.011699812 4288322202
1.6249241 0.37490004 0.011490786 4288387995
1.6725969 0.37448859 0.011909886 4288387995
-1.6760529 0.42522791 0.01222786 4288387995
-1.6267951 0.42264837 0.012498525 4288322202
-1.5763444 0.42550701 0.012002223 4288387995
-1.5254728 0.42925349 0.011924939 4288387995
-1.4719418 0.42985082 0.012308339 4288387995
-1.4255482 0.42408648 0.011218549 4288387995
-1.374525 0.42538312 0.012209065 4288387995
-1.3261194 0.42492783 0.011891939 4288387995
-1.2738947 0.42202368 0.011630498 4288387995
-1.2245682 0.42515382 0.011597104 4288387995
-1.1768923 0.42601091 0.011558468 4288387995
-1.1239666 0.42376819 0.011718913 4288387995
-1.0749499 0.42510357 0.012151172 4288387995
-1.0248206 0.42495319 0.011295561 4288387995
-0.97489321 0.42553529 0.011274726 4288387995
-0.92440134 0.42487785 0.011347652 4288387995
-0.87500495 0.42501414 0.011321777 4288387995
-0.82542318 0.42511138 0.011361611 4288387995
